0 0 0 0 0 0 0 0 0 0 0 0 0 0 0 0 0 0 0 0 0 0 0 0 0 0 0 0 0 0 0 0 0 0 0 0 0 0 0 0 0 0 0 0 0 0 0 0 0 0 0 0 0 0 0 0 0 0 0 0 0 0 0 0 2392 2392 2409 2409 2409 2409 2409 2409 2409 2409 2426 2426 2426 2443 2443 2443 2460 2460 2460 2460 2443 2443 2460 2443 2443 2460 2460 2460 2460 2460 2460 2478 2478 2478 2478 2478 2478 2478 2478 2478 2478 2478 2496 2496 2496 2496 2496 2496 2514 2514 2514 2514 2514 2514 2532 2532 2532 2532 2532 2532 2551 2551 2551 2551 2551 2551 2551 2551 2551 2589 2589 2589 2589 2589 2609 2609 2609 2609 2609 2609 2609 2609 2609 2629 2629 2629 2629 2629 2629 2629 2629 2629 2649 2669 2669 2669 2669 2669 2690 2690 2690 2690 2690 2690 2690 2690 2690 2690 2711 2711 2711 2711 2711 2711 2711 2711 2711 2711 2711 2711 2711 2711 2711 2733 2733 2733 2754 2733 2733 2733 2733 2733 2754 2754 2754 2754 2754 2754 2754 2754 2754 2754 2733 2733 2733 2754 2754 2777 2777 2777 2733 2733 2754 2754 2777 2733 2733 2733 2733 2754 2754 2754 2754 2754 2777 2777 2777 2777 2777 2777 1795 1786 1786 1786 1786 1786 1786 1768 1768 1768 1768 1768 1777 1777 1777 1777 1786 1777 1777 1786 1786 1795 1795 1804 2711 2711 2711 2711 2733 2754 2777 2777 2777 2777 2777 2777 2777 2777 2777 2777 2777 2777 2777 2777 2777 2777 2777 2777 2799 2799 2799 2799 2799 2799 2799 2822 2822 2822 2845 2845 2869 2869 2460 2460 2478 2478 2478 2496 2496 2478 2478 2514 2532 2532 2551 2551 2551 2551 0 0 0 0 0 0 0 0 0 0 0 0 0 2669 2669 2669 2690 2690 2690 2711 2711 2711 2711 2733 2733 2754 2754 2754 2777 2777 2799 2799 2822 2845 2845 2845 2869 2869 2869 2869 2869 2869 2869 2869 2869 2869 2869 2869 2869 2869 2869 2869 2869 2869 2845 2845 2845 2845 2845 2822 2799 2799 2799 2799 2799 2799 2777 2777 2777 2777 2754 2754 2754 2754 2754 2754 2754 2754 2754 2754 2754 2754 2754 2754 2733 2733 2733 2733 2733 2733 2733 2733 2733 2711 2711 2711 2711 2711 2711 2690 2690 2690 2690 2690 2690 2690 2690 2690 2690 2669 2669 2649 2649 2649 2649 2649 2649 2649 2649 2649 2649 2629 2629 2629 2629 2629 2629 2629 2629 2609 2609 2609 2609 2609 2609 2609 2609 2609 2609 2609 2609 1750 1750 1750 1750 1750 1741 1741 1732 1732 1732 1732 1732 1732 1732 1732 1732 1723 1723 1723 1715 1715 1715 1706 1706 1706 1706 1698 1698 1698 1698 1698 1690 1690 1690 1690 0 0 0 0 0 2460 2460 2460 2460 2460 2460 2460 2460 2460 2460 2460 2443 2443 2443 2426 2426 2409 2409 2426 2409 2409 2409 2409 2409 2409 2392 2392 2376 2297 2281 2266 2266 2266 2281 2297 2297 2297 2297 2297 2297 2297 2281 2281 2281 2281 2281 2281 2281 2266 2266 2266 2266 2266 2266 2266 2266 2266 2266 2266 2266 2266 2266 2281 2281 2297 2297 2297 2297 2297 2281 2281 2281 2281 2281 2281 2281 2281 2281 2281 2281 2281 2281 2266 2266 2266 2266 2266 2266 2266 2252 2252 2252 2252 2252 2252 2252 2252 2252 2252 2252 2237 2237 2237 2237 2237 2223 2223 2223 2223 2223 2223 2208 2208 2208 2208 2208 2208 2208 2194 2194 2194 2194 2194 2194 2194 2194 2194 2194 2181 2181 2181 2167 2167 2167 2167 2167 2167 2167 2167 2167 2167 2153 2153 2153 2153 2140 2140
0 0 0 0 0 0 0 0 0 0 0 0 0 0 0 0 0 0 0 0 0 0 0 0 0 0 0 0 0 0 0 0 0 0 0 0 0 0 0 0 0 0 0 0 0 0 0 0 0 0 0 0 0 0 0 0 0 0 0 0 0 0 0 0 0 2409 2409 2409 2409 2409 2409 2409 2409 2409 2426 2426 2426 2443 2443 2443 2460 2460 2460 2460 2460 2460 2460 2460 2460 2478 2478 2478 2478 2478 2478 2478 2478 2478 2478 2478 2478 2496 2496 2496 2496 2496 2496 2496 2496 2496 2496 2514 2514 2514 2514 2514 2532 2532 2532 2532 2532 2532 2532 2532 2551 2551 2551 2551 2551 2551 2551 2551 2551 2589 2589 2589 2589 2589 2609 2609 2609 2609 2609 2609 2609 2609 2609 2629 2629 2629 2629 2629 2629 2629 2629 2629 2649 2669 2669 2669 2690 2690 2690 2690 2690 2690 2690 2690 2711 2711 2711 2711 2711 2733 2733 2733 2711 2711 2711 2711 2711 2711 2711 2711 2733 2733 2733 2733 2754 2754 2754 2754 2733 2733 2754 2754 2777 2777 2777 2777 2777 2777 2777 2777 2777 2777 2777 2777 2777 2777 2777 2777 2799 2777 2754 2754 2754 2754 2777 2777 2733 2733 2733 2733 2754 2754 2754 2777 2777 2777 2777 2777 2777 2777 1795 1795 1795 1795 1795 1786 1786 1786 1777 1777 1777 1777 1777 1777 1786 1786 1795 1786 1786 1786 1786 1795 1804 1804 1804 1804 1804 2777 2777 2777 2777 2777 2777 2777 2777 2777 2777 2777 2777 2777 2777 2799 2799 2799 2799 2799 2799 2799 2822 2822 2822 2822 2822 2822 2822 2845 2822 2822 2845 2845 2869 2869 2869 2869 2869 2478 2478 2496 2496 2478 2478 2532 2532 2532 2551 2551 0 0 0 0 0 0 0 0 0 0 0 0 0 0 0 2669 2669 2669 2690 2690 2690 2690 2711 2711 2711 2733 2733 2754 2754 2777 2777 2799 2799 2799 2822 2845 2845 2845 2869 2869 2869 2869 2869 2869 2869 2869 2869 2869 2869 2869 2869 2869 2869 2869 2869 2869 2845 2845 2845 2845 2845 2822 2799 2799 2799 2799 2799 2777 2777 2777 2799 2777 2777 2777 2754 2754 2754 2754 2754 2754 2754 2754 2754 2754 2754 2733 2733 2733 2733 2733 2733 2733 2733 2733 2733 2711 2711 2711 2711 2711 2711 2711 2690 2690 2690 2690 2690 2690 2690 2690 2690 2690 2669 2649 2649 2649 2649 2649 2649 2649 2649 2649 2649 2629 2629 2629 2629 2629 2629 2629 2629 2629 2609 2609 2609 2609 2609 2609 2609 2609 2609 2609 2609 1750 1750 1750 1750 1741 1741 1741 1732 1732 1732 1732 1732 1732 1732 1732 1732 1723 1723 1723 1715 1715 1715 1715 1706 1706 1706 1698 1698 1698 1698 1698 1690 1690 1690 1690 0 0 0 0 0 2460 2460 2460 2460 2460 2460 2460 2460 2460 2460 2460 2443 2443 2443 2426 2426 2409 2409 2409 2409 2409 2409 2409 2409 2409 2392 2392 2376 2297 2281 2266 2266 2266 2281 2297 2297 2297 2297 2297 2297 2297 2281 2281 2281 2281 2281 2281 2281 2266 2266 2266 2266 2266 2266 2266 2266 2266 2266 2266 2266 2266 2266 2281 2281 2281 2281 2281 2297 2297 2281 2281 2281 2281 2281 2281 2281 2281 2281 2281 2281 2281 2281 2266 2266 2266 2266 2266 2266 2266 2266 2252 2252 2252 2252 2252 2252 2252 2252 2237 2237 2237 2237 2237 2237 2237 2223 2223 2223 2223 2223 2223 2223 2208 2208 2208 2208 2208 2208 2208 2208 2194 2194 2194 2194 2194 2194 2181 2181 2181 2181 2181 2167 2167 2167 2167 2167 2167 2167 2167 2167 2167 2153 2153 2153 2153 2153 2153
0 0 0 0 0 0 0 0 0 0 0 0 0 0 0 0 0 0 0 0 0 0 0 0 0 0 0 0 0 0 0 0 0 0 0 0 0 0 0 0 0 0 0 0 0 0 0 0 0 0 0 0 0 0 0 0 0 0 0 0 0 0 0 0 0 0 2409 2409 2409 2409 2409 2409 2409 2426 2426 2426 2443 2443 2443 2443 2443 2443 2460 2460 2460 2460 2460 2478 2478 2478 2478 2478 2478 2496 2496 2496 2514 2514 2514 2496 2496 2514 2514 2496 2496 2496 2514 2514 2514 2514 2514 2514 2532 2532 2532 2532 2532 2532 2532 2532 2532 2532 2551 2551 2551 2551 2551 2551 2551 2551 2551 2551 2570 2589 2589 2589 2589 2609 2609 2609 2609 2609 2609 2609 2609 2609 2609 2629 2629 2629 2629 2629 2629 2629 2629 2629 2649 2669 2669 2669 2669 2669 2690 2690 2690 2690 2690 2711 2711 2711 2711 2711 2733 2733 2733 2733 2711 2711 2733 2711 2711 2733 2733 2733 2754 2754 2754 2754 2777 2777 2777 2754 2754 2754 2754 2777 2777 2777 2777 2777 2777 2777 2777 2777 2799 2799 2799 2799 2799 2799 2799 2799 2799 2799 2799 2799 2777 2777 2777 2777 2733 1833 1833 1833 1833 1833 1824 1824 1824 1824 2777 2777 2799 2799 1804 1795 1795 1795 1795 1795 1795 1786 1786 1786 1786 1786 1777 1777 1786 1786 1795 1795 1795 1795 1795 1795 1804 1804 1804 1804 1804 1804 2777 2777 2777 2777 2777 2777 2777 2777 2799 2799 2777 2777 2799 2799 2799 2799 2799 2799 2799 2845 2845 2845 2845 2845 2845 2845 2845 2845 2845 2845 2845 2845 2869 2869 2869 2869 2869 2893 2893 2893 2893 2893 2869 2869 2893 2869 2869 2869 0 0 0 0 0 0 0 0 0 0 0 0 0 0 0 2649 2649 2649 2669 2669 2690 2690 2690 2711 2711 2733 2733 2754 2754 2777 2777 2799 2799 2799 2822 2822 2845 2845 2869 2869 2869 2869 2869 2869 2869 2869 2869 2893 2869 2869 2869 2869 2869 2869 2845 2845 2845 2845 2845 2845 2845 2822 2799 2799 2799 2799 2799 2777 2777 2777 2799 2777 2777 2777 2754 2754 2754 2754 2754 2754 2754 2754 2754 2754 2733 2733 2733 2733 2733 2733 2733 2733 2733 2733 2733 2711 2711 2711 2711 2711 2711 2711 2690 2690 2690 2690 2690 2690 2690 2690 2690 2690 2669 2669 2649 2649 2649 2649 2649 2649 2649 2629 2629 2629 2629 2629 2629 2629 2629 2629 2629 2629 2609 2609 2609 2609 2609 2609 2609 2589 2589 2609 2609 1750 1750 1750 1750 1741 1741 1741 1741 1741 1741 1732 1732 1732 1732 1732 1732 1723 1723 1723 1715 1715 1715 1715 1706 1706 1706 1698 1698 1698 1698 1698 1690 1690 1690 1690 0 0 0 0 0 2460 2460 2460 2460 2460 2460 2460 2460 2460 2460 2443 2443 2443 2443 2426 2426 2409 2409 2409 2409 2409 2409 2409 2409 2409 2392 2376 2376 2281 2281 2266 2266 2266 2281 2297 2297 2297 2297 2297 2297 2297 2281 2281 2281 2281 2281 2281 2266 2266 2266 2266 2266 2266 2266 2266 2266 2266 2266 2266 2266 2266 2266 2281 2281 2281 2281 2281 2297 2297 2281 2281 2281 2281 2281 2281 2281 2281 2281 2281 2281 2281 2281 2266 2266 2266 2266 2266 2266 2266 2266 2252 2252 2252 2252 2252 2252 2252 2252 2237 2237 2237 2237 2237 2237 2223 2223 2223 2223 2223 2223 2223 2208 2208 2208 2208 2208 2208 2208 2208 2208 2194 2194 2194 2194 2194 2194 2181 2181 2181 2181 2181 2167 2167 2167 2167 2153 2153 2153 2153 2153 2153 2153 2153 2153 2153 2153 2153
0 0 0 0 0 0 0 0 0 0 0 0 0 0 0 0 0 0 0 0 0 0 0 0 0 0 0 0 0 0 0 0 0 0 0 0 0 0 0 0 0 0 0 0 0 0 0 0 0 0 0 0 0 0 0 0 0 0 0 0 0 0 0 0 0 0 0 2409 2409 2409 2409 2409 2409 2426 2426 2426 2443 2443 2443 2443 2443 2443 2460 2460 2460 2460 2460 2478 2478 2478 2478 2496 2496 2496 2496 2514 2514 2514 2514 2514 2514 2514 2514 2514 2514 2514 2532 2532 2532 2532 2532 2532 2532 2532 2532 2532 2532 2532 2551 2551 2551 2551 2551 2551 2551 2551 2551 2551 2551 2551 2551 2551 2570 2589 2589 2589 2589 2609 2609 2609 2609 2609 2609 2629 2609 2609 2629 2629 2629 2629 2629 2629 2629 2629 2629 2649 2649 2669 2669 2669 2669 2669 2690 2690 2690 2690 2711 2711 2711 2711 2711 2711 2733 2733 2733 2733 2733 2733 2733 2733 2733 2733 2733 2754 2754 2754 2754 2754 2777 2777 2777 2777 2777 2777 2799 2799 2777 2777 2777 2777 2799 2799 2799 2799 2799 2799 2799 2799 2799 2799 2799 2799 2799 2799 2799 2799 2777 2777 2799 1833 1833 1833 1833 1833 1833 1833 1824 1824 1824 1824 1814 1814 1804 1804 1804 1795 1795 1795 1795 1795 1795 1795 1795 1786 1786 1786 1786 1786 1786 1786 1795 1795 1795 1795 1795 1795 1804 1804 1804 1804 1804 1804 1804 1804 1804 2799 2799 2799 2799 2799 2799 2799 2799 2799 2799 2799 2799 2799 2799 2822 2822 2845 2869 2845 2845 2869 2869 2869 2869 2845 2845 2845 2869 2869 2869 2869 2869 2869 2869 2893 2893 2893 2893 2893 2893 2893 2893 2869 2869 2869 0 0 0 0 0 0 0 0 0 0 0 0 0 0 0 2629 2629 2649 2649 2669 2669 2690 2690 2690 2711 2711 2733 2754 2754 2777 2777 2777 2799 2799 2799 2822 2845 2845 2869 2869 2869 2869 2893 2893 2893 2893 2893 2893 2869 2869 2869 2869 2869 2869 2845 2845 2845 2845 2845 2845 2845 2822 2799 2799 2799 2799 2799 2799 2799 2799 2799 2799 2777 2777 2777 2777 2777 2777 2754 2754 2754 2733 2733 2733 2733 2733 2733 2733 2733 2711 2711 2711 2711 2711 2711 2711 2711 2711 2711 2711 2690 2690 2690 2690 2690 2690 2690 2690 2690 2690 2690 2690 2669 2669 2649 2649 2649 2649 2649 2649 2649 2629 2629 2629 2629 2629 2629 2629 2629 2629 2629 2629 2609 2609 2609 2609 2609 2609 2609 2589 2589 2609 2609 1741 1741 1750 1750 1741 1741 1741 1741 1741 1741 1732 1732 1732 1732 1732 1723 1723 1723 1723 1715 1715 1715 1706 1706 1706 1706 1706 1698 1698 1698 1698 1690 1690 1690 1690 0 0 0 0 2460 2460 2460 2460 2460 2460 2443 2443 2443 2443 2443 2443 2443 2443 2426 2426 2426 2426 2426 2409 2409 2409 2409 2409 2409 2409 2392 2376 2281 2281 2281 2266 2266 2266 2281 2297 2297 2297 2297 2297 2297 2281 2281 2281 2281 2281 2281 2266 2266 2266 2266 2252 2252 2252 2252 2266 2266 2266 2266 2266 2266 2266 2266 2281 2281 2281 2281 2297 2297 2297 2297 2297 2297 2297 2281 2281 2297 2297 2281 2281 2281 2281 2281 2266 2266 2266 2266 2266 2252 2252 2252 2252 2252 2252 2252 2252 2252 2252 2252 2252 2237 2237 2237 2237 2223 2223 2223 2223 2223 2223 2223 2223 2208 2208 2208 2208 2208 2208 2208 2208 2194 2194 2194 2194 2194 2194 2194 2194 2194 2194 2194 2181 2167 2167 2167 2167 2153 2153 2153 2153 2153 2153 2153 2153 2153 2153 2153 2153
0 0 0 0 0 0 0 0 0 0 0 0 0 0 0 0 0 0 0 0 0 0 0 0 0 0 0 0 0 0 0 0 0 0 0 0 0 0 0 0 0 0 0 0 0 0 0 0 0 0 0 0 0 0 0 0 0 0 0 0 0 0 0 0 0 0 0 2426 2409 2409 2409 2409 2409 2426 2443 2443 2443 2443 2443 2443 2443 2443 2460 2460 2460 2460 2460 2478 2478 2478 2478 2496 2496 2514 2514 2514 2514 2514 2514 2514 2514 2532 2532 2532 2532 2532 2532 2532 2532 2532 2532 2532 2532 2551 2551 2551 2551 2551 2551 2551 2551 2551 2551 2551 2551 2551 2551 2551 2551 2551 2551 2570 2570 2589 2589 2589 2589 2609 2609 2609 2609 2609 2609 2629 2609 2609 2629 2629 2629 2629 2629 2629 2649 2649 2649 2649 2649 2669 2669 2690 2690 2690 2690 2690 2690 2690 2711 2711 2711 2711 2711 2711 2733 2733 2733 2733 2733 2754 2754 2754 2754 2754 2754 2754 2777 2777 2777 2777 2777 2777 2799 2799 2799 2799 2799 2799 2799 2799 2799 2799 2799 2799 2799 2799 2799 2799 2822 2799 2799 2799 2799 2799 2799 2799 2799 2799 1843 1843 1843 1833 1833 1833 1833 1843 1843 1833 1833 1833 1833 1824 1814 1814 1804 1804 1804 1804 1804 1804 1804 1804 1804 1795 1795 1795 1795 1795 1795 1795 1795 1795 1795 1795 1795 1795 1795 1804 1804 1804 1804 1804 1804 1804 1804 1804 1814 1814 1824 1833 2799 2799 2799 2799 2799 2799 2799 2822 2822 2845 2845 2845 2845 2869 2869 2869 2869 2869 2869 2869 2869 2869 2869 2869 2869 2869 2869 2869 2869 2869 2893 2893 2893 2893 2893 2893 2893 2893 2893 2869 2869 0 0 0 0 0 0 0 0 0 0 0 0 0 0 0 2609 2609 2629 2629 2649 2649 2669 2669 2669 2690 2690 2711 2711 2733 2754 2754 2754 2777 2777 2799 2799 2799 2822 2845 2869 2869 2869 2869 2893 2893 2893 2893 2893 2893 2893 2869 2869 2869 2869 2869 2845 2845 2845 2845 2845 2845 2845 2822 2799 2799 2799 2799 2799 2799 2799 2799 2799 2799 2777 2777 2777 2777 2777 2777 2754 2754 2754 2733 2733 2733 2733 2733 2711 2711 2711 2711 2711 2711 2711 2711 2711 2711 2711 2711 2711 2690 2690 2690 2690 2690 2690 2690 2690 2690 2690 2690 2690 2669 2669 2649 2649 2649 2649 2649 2649 2649 2649 2649 2629 2629 2629 2629 2629 2629 2629 2629 2629 2629 2609 2609 2609 2609 2609 2609 2609 2589 2589 2609 2609 1741 1741 1741 1741 1741 1741 1741 1741 1741 1741 1732 1732 1732 1732 1723 1723 1723 1723 1715 1715 1715 1715 1706 1706 1706 1706 1706 1698 1698 1698 1698 1690 1690 1690 1690 1690 0 0 0 2460 2460 2460 2443 2443 2460 2443 2443 2443 2443 2443 2443 2443 2443 2426 2426 2426 2426 2426 2409 2409 2409 2409 2409 2409 2409 2392 2281 2281 2281 2281 2281 2281 2281 2281 2297 2297 2297 2297 2297 2297 2281 2281 2281 2281 2281 2281 2266 2266 2266 2266 2252 2252 2252 2252 2266 2266 2252 2252 2252 2266 2266 2266 2266 2266 2281 2297 2297 2297 2297 2297 2297 2297 2297 2297 2281 2281 2281 2281 2281 2281 2281 2281 2266 2266 2266 2266 2266 2252 2252 2252 2252 2252 2252 2252 2252 2252 2252 2252 2237 2237 2237 2237 2223 2223 2223 2223 2223 2223 2223 2223 2223 2208 2208 2223 2208 2208 2208 2208 2208 2194 2194 2194 2194 2194 2194 2194 2194 2194 2194 2194 2194 2181 2181 2167 2167 2153 2153 2153 2153 2153 2153 2153 2153 2153 2153 2153 2153
0 0 0 0 0 0 0 0 0 0 0 0 0 0 0 0 0 0 0 0 0 0 0 0 0 0 0 0 0 0 0 0 0 0 0 0 0 0 0 0 0 0 0 0 0 0 0 0 0 0 0 0 0 0 0 0 0 0 0 0 0 0 0 0 0 0 0 2409 2409 2409 2409 2409 2409 2426 2426 2443 2443 2443 2443 2443 2443 2443 2460 2460 2460 2460 2460 2478 2478 2478 2478 2496 2496 2514 2514 2514 2514 2514 2514 2514 2514 2532 2532 2532 2532 2532 2532 2532 2551 2551 2551 2551 2551 2551 2551 2551 2551 2551 2551 2551 2551 2551 2551 2551 2551 2551 2551 2551 2551 2551 2570 2570 2570 2589 2589 2589 2609 2609 2609 2609 2609 2609 2609 2609 2609 2609 2629 2629 2629 2629 2649 2649 2649 2649 2649 2649 2669 2669 2690 2690 2690 2690 2690 2711 2690 2690 2711 2711 2711 2711 2711 2733 2733 2733 2733 2754 2754 2754 2754 2754 2754 2754 2754 2754 2777 2777 2777 2777 2777 2777 2777 2799 2799 2799 2799 2799 2822 2822 2799 2799 2799 2799 2799 2799 1883 1883 1883 1863 1863 2799 2799 2799 2822 2822 1843 1843 1843 1843 1843 1843 1843 1843 1843 1843 1843 1843 1833 1833 1833 1833 1824 1824 1814 1814 1814 1814 1804 1804 1804 1804 1804 1804 1804 1804 1804 1804 1804 1795 1795 1795 1795 1795 1804 1804 1804 1804 1814 1804 1804 1814 1814 1814 1814 1814 1814 1814 1824 1833 1863 1863 1863 1853 1863 1863 1863 1863 1863 1873 1873 1873 1883 2869 2869 2869 2869 2869 2893 2893 2893 2893 2893 2869 2869 2869 2869 2869 2893 2893 2893 2893 2893 2893 2893 2893 2893 2893 2893 2893 2893 0 0 0 0 0 0 0 0 0 0 0 0 0 0 0 2609 2609 2629 2629 2629 2649 2669 2669 2669 2669 2690 2711 2711 2733 2754 2754 2754 2777 2777 2777 2799 2799 2799 2822 2845 2869 2869 2869 2893 2893 2893 2893 2893 2893 2869 2869 2869 2869 2869 2869 2869 2869 2869 2845 2845 2845 2845 2822 2822 2799 2799 2799 2799 2799 2799 2799 2799 2799 2777 2777 2777 2777 2777 2777 2777 2754 2754 2733 2733 2733 2733 2733 2711 2711 2711 2711 2711 2711 2711 2711 2711 2711 2711 2711 2711 2690 2690 2690 2690 2690 2690 2690 2690 2690 2690 2690 2690 2669 2669 2649 2649 2649 2649 2649 2649 2649 2649 2649 2649 2649 2629 2629 2629 2629 2629 2629 2629 2629 2609 2609 2609 2609 2609 2609 2589 2589 2589 2589 2589 1732 1732 1741 1732 1732 1741 1741 1741 1741 1741 1732 1732 1732 1732 1723 1723 1723 1723 1715 1715 1715 1715 1715 1706 1706 1706 1706 1698 1698 1698 1698 1690 1690 1690 1690 1690 0 0 0 2443 2443 2443 2443 2443 2460 2443 2443 2443 2443 2443 2443 2443 2443 2426 2426 2426 2426 2426 2409 2409 2409 2409 2409 2409 2409 2409 2281 2281 2281 2281 2281 2281 2281 2281 2297 2297 2297 2297 2297 2297 2297 2297 2297 2297 2281 2281 2281 2281 2266 2266 2266 2266 2266 2266 2266 2266 2252 2252 2252 2266 2266 2266 2266 2266 2281 2297 2297 2297 2297 2297 2297 2297 2297 2297 2281 2281 2281 2281 2281 2281 2281 2281 2266 2266 2266 2266 2266 2252 2252 2252 2252 2252 2252 2252 2252 2252 2252 2252 2237 2237 2223 2223 2223 2223 2223 2223 2223 2223 2223 2223 2223 2208 2208 2223 2208 2208 2208 2208 2208 2208 2194 2194 2194 2194 2194 2194 2194 2194 2194 2194 2194 2194 2181 2167 2167 2153 2153 2153 2153 2153 2153 2153 2153 2153 2153 2153 2153
0 0 0 0 0 0 0 0 0 0 0 0 0 0 0 0 0 0 0 0 0 0 0 0 0 0 0 0 0 0 0 0 0 0 0 0 0 0 0 0 0 0 0 0 0 0 0 0 0 0 0 0 0 0 0 0 0 0 0 0 0 0 0 0 0 0 0 2409 2409 2409 2409 2409 2409 2426 2426 2443 2460 2443 2443 2460 2460 2460 2460 2460 2460 2460 2478 2478 2478 2478 2496 2496 2496 2496 2514 2514 2514 2514 2514 2514 2514 2532 2532 2532 2532 2532 2551 2551 2551 2551 2551 2551 2551 2570 2570 2570 2570 2570 2570 2570 2570 2570 2570 2570 2570 2570 2570 2570 2570 2570 2570 2570 2589 2589 2589 2589 2609 2609 2609 2609 2609 2609 2609 2609 2609 2609 2629 2629 2629 2649 2649 2649 2649 2649 2669 2669 2669 2690 2690 2690 2690 2690 2690 2711 2711 2711 2711 2711 2711 2711 2711 2733 2733 2733 2733 2754 2754 2754 2754 2754 2754 2754 2777 2777 2777 2777 2777 2777 2777 2777 2777 2799 2799 2799 2799 2799 2822 2822 2799 2799 2799 2799 1883 1883 1883 1883 1883 1863 1863 1863 1863 1863 1853 1853 1843 1843 1843 1843 1843 1843 1853 1843 1843 1853 1843 1843 1843 1843 1833 1833 1833 1833 1833 1833 1833 1833 1824 1824 1824 1814 1814 1814 1814 1814 1814 1814 1814 1804 1804 1814 1804 1804 1814 1804 1804 1814 1814 1814 1814 1814 1814 1814 1824 1824 1824 1824 1833 1843 1863 1863 1863 1853 1853 1863 1863 1863 1863 1873 1873 1873 1883 1883 2869 2869 2869 2893 2893 2893 2893 2893 2893 2893 2893 2893 2869 2869 2893 2893 2917 2917 2917 2917 2917 2917 2893 2893 2893 2893 2893 0 0 0 0 0 0 0 0 0 0 0 0 0 0 0 0 2629 2609 2609 2609 2629 2649 2669 2669 2669 2690 2711 2711 2733 2754 2754 2754 2777 2777 2777 2777 2799 2799 2822 2845 2845 2869 2869 2893 2893 2893 2893 2893 2869 2869 2869 2869 2869 2869 2845 2845 2845 2845 2845 2845 2845 2845 2822 2822 2799 2799 2799 2799 2799 2799 2799 2799 2799 2777 2777 2777 2777 2777 2777 2777 2754 2754 2733 2733 2733 2733 2733 2711 2711 2711 2711 2711 2711 2711 2711 2711 2711 2711 2711 2711 2690 2690 2690 2690 2690 2690 2690 2690 2690 2690 2690 2690 2669 2669 2669 2669 2649 2649 2649 2649 2649 2649 2649 2649 2649 2629 2629 2629 2629 2629 2629 2629 2629 2609 2609 2609 2609 2609 2609 2589 2589 2589 2589 2570 1732 1732 1741 1732 1732 1741 1741 1741 1741 1732 1732 1732 1732 1732 1732 1723 1723 1723 1723 1715 1715 1715 1715 1706 1706 1706 1706 1698 1698 1698 1698 1690 1690 1690 1690 1690 0 0 0 2443 2443 2443 2443 2443 2443 2443 2443 2443 2443 2443 2443 2443 2443 2426 2426 2426 2426 2426 2409 2409 2409 2409 2409 2409 2409 2409 2297 2281 2281 2281 2281 2281 2281 2281 2297 2297 2297 2312 2312 2297 2297 2297 2297 2297 2281 2281 2281 2281 2281 2266 2266 2266 2266 2266 2266 2266 2252 2252 2252 2266 2266 2266 2266 2266 2281 2297 2297 2297 2297 2297 2297 2297 2297 2297 2281 2281 2281 2281 2281 2281 2281 2281 2266 2266 2266 2266 2266 2252 2252 2252 2252 2252 2252 2252 2252 2252 2252 2252 2237 2223 2223 2223 2223 2223 2223 2223 2223 2223 2223 2223 2223 2223 2223 2223 2208 2208 2208 2208 2208 2208 2194 2194 2194 2194 2194 2194 2194 2194 2194 2194 2194 2194 2181 2181 2167 2153 2153 2153 2153 2153 2153 2153 2153 2153 2153 2153 2153
0 0 0 0 0 0 0 0 0 0 0 0 0 0 0 0 0 0 0 0 0 0 0 0 0 0 0 0 0 0 0 0 0 0 0 0 0 0 0 0 0 0 0 0 0 0 0 0 0 0 0 0 0 0 0 0 0 0 0 0 0 0 0 0 0 0 0 2409 2409 2409 2409 2409 2409 2426 2443 2443 2460 2460 2460 2460 2460 2460 2460 2460 2460 2460 2478 2478 2478 2478 2478 2496 2496 2496 2496 2496 2514 2514 2514 2514 2514 2532 2532 2532 2532 2532 2551 2551 2551 2551 2551 2551 2570 2570 2570 2570 2570 2570 2570 2570 2570 2570 2570 2570 2570 2589 2589 2570 2570 2570 2589 2589 2589 2609 2609 2609 2609 2609 2609 2609 2609 2609 2609 2629 2629 2629 2629 2629 2629 2649 2649 2649 2649 2669 2669 2669 2669 2690 2690 2690 2690 2690 2690 2711 2711 2711 2711 2711 2711 2733 2733 2733 2733 2754 2754 2754 2754 2754 2754 2754 2777 2777 2777 2777 2777 2777 2777 2777 2777 2799 2799 2799 2799 2822 2822 2822 2822 2822 2799 2799 1873 1873 1883 1883 1883 1883 1883 1873 1873 1863 1863 1863 1853 1853 1853 1843 1843 1843 1853 1853 1853 1853 1853 1853 1853 1853 1843 1843 1843 1843 1833 1833 1843 1833 1833 1843 1833 1833 1833 1833 1824 1824 1824 1824 1824 1824 1824 1824 1824 1814 1814 1814 1814 1814 1814 1814 1814 1824 1824 1824 1824 1824 1824 1824 1833 1833 1843 1853 1863 1873 1863 1853 1853 1863 1863 1863 1863 1873 1873 1873 1883 1883 1894 1904 2869 2893 2893 2893 2893 2893 2893 2893 2893 2893 2893 2893 2893 2893 2917 2942 2942 2942 2917 2917 2917 2917 2893 2893 2893 0 0 0 0 0 0 0 0 0 0 0 0 0 0 0 0 0 2609 2589 2589 2629 2629 2649 2649 2669 2669 2711 2733 2733 2754 2754 2754 2754 2777 2777 2777 2777 2799 2799 2845 2845 2869 2869 2893 2893 2893 2893 2893 2869 2869 2869 2869 2869 2869 2845 2845 2845 2845 2845 2845 2845 2845 2845 2822 2822 2799 2799 2799 2799 2799 2799 2799 2799 2799 2777 2777 2777 2777 2777 2777 2754 2754 2733 2733 2733 2733 2733 2711 2711 2733 2711 2711 2711 2711 2711 2711 2711 2711 2711 2690 2690 2690 2690 2690 2690 2690 2690 2690 2690 2690 2690 2669 2669 2649 2649 2649 2649 2649 2649 2649 2649 2649 2649 2649 2629 2629 2629 2629 2629 2629 2629 2629 2609 2609 2609 2609 2609 2609 2609 2589 2589 2589 2589 1741 1741 1741 1741 1732 1732 1741 1741 1741 1732 1732 1732 1732 1732 1732 1732 1723 1723 1723 1723 1715 1715 1715 1706 1706 1706 1706 1706 1698 1698 1698 1698 1698 1690 1690 1698 1698 0 0 0 0 2443 2443 2443 2443 2443 2443 2443 2443 2443 2443 2443 2443 2443 2443 2426 2426 2426 2409 2409 2409 2409 2409 2409 2409 2409 2409 2281 2281 2281 2281 2281 2281 2281 2281 2297 2297 2297 2312 2312 2297 2297 2297 2297 2297 2281 2281 2266 2266 2281 2266 2266 2266 2266 2266 2266 2266 2252 2252 2252 2266 2266 2266 2266 2281 2281 2297 2297 2297 2297 2297 2297 2297 2297 2297 2281 2281 2281 2281 2281 2281 2281 2281 2266 2266 2266 2266 2266 2266 2266 2252 2252 2266 2252 2252 2252 2252 2252 2237 2237 2223 2223 2223 2223 2223 2223 2223 2223 2223 2223 2223 2223 2223 2223 2223 2208 2208 2208 2208 2208 2208 2194 2194 2194 2194 2194 2194 2194 2194 2194 2194 2194 2194 2181 2181 2181 2167 2167 2153 2153 2153 2153 2153 2153 2153 2153 2153 2153
0 0 0 0 0 0 0 0 0 0 0 0 0 0 0 0 0 0 0 0 0 0 0 0 0 0 0 0 0 0 0 0 0 0 0 0 0 0 0 0 0 0 0 0 0 0 0 0 0 0 0 0 0 0 0 0 0 0 0 0 0 0 0 0 0 0 0 2409 2409 2409 2409 2409 2409 2426 2443 2443 2443 2443 2443 2443 2443 2460 2460 2460 2460 2460 2460 2478 2478 2478 2478 2478 2496 2496 2496 2496 2514 2514 2514 2514 2514 2532 2532 2532 2532 2532 2551 2551 2551 2551 2551 2570 2570 2570 2589 2589 2570 2570 2589 2589 2589 2589 2589 2589 2589 2609 2609 2589 2589 2589 2589 2609 2609 2609 2609 2609 2609 2609 2629 2629 2629 2629 2629 2629 2629 2649 2649 2649 2649 2649 2649 2649 2669 2669 2669 2669 2669 2690 2690 2690 2690 2690 2690 2690 2711 2711 2711 2711 2711 2733 2733 2733 2733 2754 2754 2754 2754 2754 2754 2754 2777 2777 2777 2777 2777 2777 2777 2777 2777 2799 2799 2799 2822 2799 2799 2845 2845 2845 2822 2822 1873 1873 1883 1883 1883 1883 1883 1883 1873 1863 1863 1863 1853 1853 1853 1853 1853 1853 1863 1863 1863 1863 1863 1863 1863 1863 1853 1853 1853 1853 1853 1853 1853 1853 1853 1853 1853 1853 1853 1853 1843 1843 1843 1843 1843 1843 1843 1843 1843 1843 1833 1833 1833 1824 1824 1824 1824 1824 1824 1833 1833 1833 1833 1833 1843 1843 1853 1853 1863 1863 1873 1863 1863 1863 1863 1873 1873 1873 1873 1873 1883 1883 1894 1894 1904 1904 1915 1915 1915 2893 2893 2893 2893 2893 2893 2893 2893 2893 2942 2942 2942 2942 2942 2942 2942 2917 2917 0 0 0 0 0 0 0 0 0 0 0 0 0 0 0 0 0 0 0 0 2589 2589 2609 2609 2629 2629 2649 2669 2711 2733 2733 2733 2754 2754 2754 2777 2777 2777 2777 2799 2799 2822 2845 2869 2869 2893 2893 2893 2893 2893 2869 2869 2869 2869 2869 2845 2845 2845 2845 2845 2845 2845 2845 2845 2845 2822 2822 2799 2799 2799 2799 2799 2799 2799 2799 2799 2777 2777 2777 2777 2777 2777 2754 2754 2733 2733 2733 2733 2733 2733 2733 2733 2711 2711 2711 2711 2711 2711 2711 2711 2711 2690 2690 2690 2690 2690 2690 2690 2690 2690 2690 2690 2690 2669 2669 2649 2649 2649 2649 2649 2649 2649 2649 2629 2629 2629 2629 2629 2629 2629 2629 2629 2629 2609 2609 2609 2609 2609 2609 2609 2609 2589 2589 2589 2589 1741 1741 1741 1741 1741 1741 1741 1741 1741 1732 1732 1732 1732 1732 1732 1723 1723 1723 1723 1715 1715 1715 1706 1706 1698 1698 1698 1698 1698 1698 1698 1698 1698 1698 1698 1698 1698 0 0 0 0 0 2443 2443 2443 2443 2443 2443 2426 2426 2443 2443 2426 2426 2426 2426 2426 2426 2409 2409 2409 2409 2409 2409 2409 2409 2409 2281 2281 2281 2281 2281 2281 2281 2281 2297 2297 2297 2297 2297 2297 2297 2297 2297 2297 2297 2281 2266 2266 2281 2266 2266 2266 2266 2266 2266 2266 2252 2252 2252 2266 2266 2281 2281 2281 2281 2297 2297 2297 2297 2297 2297 2297 2297 2297 2281 2281 2281 2281 2281 2281 2281 2281 2266 2266 2266 2266 2266 2266 2266 2252 2252 2266 2252 2252 2252 2252 2252 2237 2237 2223 2223 2223 2223 2223 2223 2223 2223 2223 2223 2223 2223 2223 2223 2223 2208 2208 2208 2208 2208 2208 2208 2194 2194 2194 2194 2194 2194 2194 2194 2194 2194 2194 2181 2181 2194 2167 2167 2153 2153 2153 2153 2153 2153 2153 2153 2153 2153
0 0 0 0 0 0 0 0 0 0 0 0 0 0 0 0 0 0 0 0 0 0 0 0 0 0 0 0 0 0 0 0 0 0 0 0 0 0 0 0 0 0 0 0 0 0 0 0 0 0 0 0 0 0 0 0 0 0 0 0 0 0 0 0 0 0 0 2409 2409 2409 2409 2409 2409 2409 2426 2443 2443 2443 2443 2443 2443 2460 2460 2460 2460 2460 2460 2478 2478 2478 2478 2478 2496 2496 2496 2496 2514 2514 2514 2532 2532 2532 2532 2532 2532 2532 2551 2551 2551 2551 2551 2570 2570 2589 2589 2589 2589 2589 2589 2589 2609 2609 2609 2609 2609 2609 2609 2609 2609 2609 2609 2629 2629 2629 2629 2629 2629 2629 2629 2629 2629 2629 2629 2649 2649 2649 2649 2649 2649 2669 2669 2669 2669 2669 2669 2669 2690 2690 2690 2690 2690 2690 2690 2690 2711 2711 2711 2711 2711 2711 2733 2733 2733 2733 2754 2754 2754 2754 2754 2754 2777 2777 2777 2777 2777 2777 2777 2777 2777 2799 2799 1925 1925 1925 1915 1915 1915 1915 1915 1904 1894 1894 1894 1894 1883 1883 1883 1883 1883 1873 1873 1873 1863 1863 1863 1863 1863 1863 1873 1883 1883 1883 1883 1873 1873 1873 1873 1873 1873 1873 1863 1863 1873 1873 1873 1863 1863 1863 1863 1873 1873 1873 1873 1863 1863 1863 1863 1863 1853 1853 1843 1843 1843 1853 1853 1843 1843 1843 1843 1843 1833 1833 1833 1843 1853 1853 1853 1863 1863 1863 1873 1863 1863 1873 1873 1873 1873 1873 1873 1873 1883 1883 1894 1894 1894 1904 1915 1915 1915 1925 1925 1925 1936 2893 2893 2893 2893 2893 2942 2942 2942 2942 2942 2942 2942 2942 0 0 0 0 0 0 0 0 0 0 0 0 0 0 0 0 0 0 0 0 0 0 2629 2609 2609 2629 2629 2649 2669 2711 2733 2733 2733 2733 2754 2754 2777 2777 2777 2777 2777 2799 2822 2845 2869 2869 2893 2893 2893 2869 2869 2869 2869 2869 2845 2845 2845 2845 2845 2845 2869 2845 2845 2845 2845 2845 2822 2822 2822 2799 2799 2799 2799 2799 2799 2799 2799 2777 2777 2777 2777 2777 2777 2754 2754 2733 2733 2733 2733 2733 2711 2711 2733 2711 2711 2711 2711 2711 2711 2711 2711 2711 2690 2690 2690 2690 2690 2690 2690 2690 2690 2690 2690 2690 2669 2669 2649 2649 2649 2649 2649 2649 2649 2649 2629 2629 2629 2629 2629 2629 2629 2629 2629 2629 2609 2609 2609 2609 2609 2609 2609 2609 2589 2589 2589 2589 1741 1741 1741 1741 1741 1741 1741 1741 1741 1732 1732 1732 1732 1723 1723 1723 1723 1723 1723 1715 1715 1715 1706 1706 1698 1698 1698 1698 1698 1698 1698 1698 1698 1698 1698 1698 1698 0 0 0 0 0 2443 2443 2443 2443 2443 2426 2426 2426 2443 2443 2426 2426 2426 2426 2426 2426 2426 2409 2409 2409 2409 2409 2409 2409 2409 2281 2281 2281 2281 2281 2281 2281 2297 2297 2297 2297 2297 2297 2297 2297 2281 2281 2297 2297 2281 2281 2281 2281 2281 2266 2266 2266 2266 2266 2266 2266 2266 2266 2266 2281 2281 2281 2281 2297 2297 2297 2297 2297 2297 2297 2297 2297 2281 2281 2281 2281 2281 2281 2281 2281 2281 2266 2266 2266 2266 2266 2266 2266 2252 2252 2266 2252 2252 2252 2252 2252 2237 2237 2223 2223 2223 2223 2223 2223 2223 2223 2223 2223 2223 2223 2223 2223 2223 2208 2208 2208 2208 2208 2208 2208 2194 2194 2208 2208 2194 2194 2194 2194 2194 2194 2194 2181 2181 2194 2167 2167 2167 2167 2153 2153 2167 2167 2153 2153 2153 2153
0 0 0 0 0 0 0 0 0 0 0 0 0 0 0 0 0 0 0 0 0 0 0 0 0 0 0 0 0 0 0 0 0 0 0 0 0 0 0 0 0 0 0 0 0 0 0 0 0 0 0 0 0 0 0 0 0 0 0 0 0 0 0 0 0 0 2392 2392 2392 2392 2392 2409 2409 2409 2426 2426 2443 2443 2443 2443 2460 2460 2460 2460 2460 2460 2478 2478 2478 2478 2478 2478 2496 2496 2496 2496 2514 2514 2514 2532 2532 2532 2532 2532 2532 2532 2551 2551 2551 2551 2551 2570 2570 2589 2589 2589 2589 2589 2589 2589 2609 2609 2609 2609 2629 2629 2629 2629 2629 2629 2629 2629 2629 2629 2629 2629 2629 2629 2629 2629 2649 2649 2649 2649 2669 2669 2669 2669 2669 2669 2669 2669 2690 2690 2690 2690 2690 2690 2690 2690 2690 2690 2690 2711 2711 2711 2711 2711 2711 2711 2733 2733 2733 2733 2754 2754 2754 2754 2754 2754 2777 2777 2777 2777 2777 2777 2777 2777 1958 1958 1947 1936 1925 1925 1915 1915 1915 1915 1915 1904 1904 1904 1904 1904 1894 1894 1894 1894 1894 1883 1883 1883 1883 1883 1883 1883 1883 1883 1883 1894 1894 1904 1904 1894 1894 1883 1883 1883 1873 1873 1873 1873 1883 1883 1883 1883 1883 1883 1883 1883 1883 1894 1883 1883 1883 1883 1873 1873 1873 1873 1863 1863 1863 1873 1873 1873 1873 1863 1863 1863 1883 1833 1833 1843 1853 1863 1863 1863 1873 1873 1873 1883 1883 1883 1883 1883 1883 1883 1883 1883 1883 1894 1894 1894 1894 1894 1904 1915 1915 1915 1925 1925 1925 1925 1925 1925 1925 2942 2942 2942 2942 2942 2942 2942 2942 2942 0 0 0 0 0 0 0 0 0 0 0 0 0 0 0 0 0 0 0 0 0 0 0 0 0 0 0 2690 2690 2711 2733 2733 2733 2733 2754 2754 2754 2777 2777 2777 2777 2799 2822 2845 2869 2869 2869 2893 2869 2869 2869 2869 2869 2869 2845 2845 2845 2845 2845 2845 2869 2869 2845 2845 2845 2845 2822 2822 2822 2799 2799 2799 2799 2799 2799 2799 2799 2777 2777 2777 2777 2777 2777 2754 2754 2754 2733 2733 2733 2733 2711 2711 2711 2711 2711 2711 2711 2711 2711 2711 2690 2690 2690 2690 2690 2690 2690 2690 2690 2690 2690 2690 2690 2669 2669 2669 2649 2649 2649 2669 2669 2649 2649 2649 2649 2629 2629 2629 2629 2629 2629 2629 2629 2629 2609 2609 2609 2609 2609 2609 2609 2609 2589 2589 2589 2589 1741 1741 1741 1741 1741 1732 1732 1732 1732 1732 1732 1732 1732 1723 1723 1723 1723 1723 1723 1715 1715 1715 1706 1706 1698 1698 1698 1698 1698 1698 1698 1698 1698 1698 1698 1698 1698 0 0 0 0 0 2443 2443 2443 2443 2443 2426 2426 2426 2426 2426 2426 2426 2426 2426 2426 2426 2409 2409 2409 2409 2409 2409 2409 2409 2409 2281 2281 2281 2281 2281 2281 2281 2297 2297 2297 2297 2297 2297 2297 2297 2281 2281 2297 2297 2281 2281 2281 2281 2281 2281 2266 2266 2266 2266 2266 2266 2266 2266 2266 2281 2281 2281 2297 2297 2297 2297 2297 2281 2281 2297 2297 2281 2281 2281 2281 2281 2281 2281 2281 2281 2281 2281 2281 2266 2266 2266 2266 2266 2252 2252 2252 2252 2252 2252 2237 2237 2237 2237 2237 2237 2237 2237 2223 2223 2223 2223 2223 2223 2223 2223 2223 2223 2223 2208 2208 2208 2208 2208 2208 2208 2208 2208 2208 2208 2194 2194 2181 2181 2194 2194 2194 2181 2181 2194 2181 2181 2167 2167 2167 2167 2167 2167 2153 2153 2153 2153
0 0 0 0 0 0 0 0 0 0 0 0 0 0 0 0 0 0 0 0 0 0 0 0 0 0 0 0 0 0 0 0 0 0 0 0 0 0 0 0 0 0 0 0 0 0 0 0 0 0 0 0 0 0 0 0 0 0 0 0 0 0 0 0 0 2392 2392 2392 2392 2392 2392 2409 2409 2409 2409 2409 2426 2426 2443 2443 2460 2460 2460 2460 2460 2478 2478 2478 2478 2478 2478 2478 2496 2496 2496 2496 2514 2514 2514 2532 2532 2532 2532 2532 2532 2532 2551 2551 2551 2551 2551 2570 2570 2589 2589 2589 2589 2589 2609 2609 2609 2609 2629 2629 2629 2629 2629 2629 2629 2629 2629 2649 2649 2649 2649 2649 2649 2649 2649 2649 2649 2649 2669 2669 2669 2669 2669 2669 2669 2690 2690 2690 2690 2690 2690 2690 2690 2690 2690 2690 2690 2690 2711 2711 2711 2711 2711 2711 2711 2711 2733 2733 2733 2733 2733 2754 2754 2754 2754 2777 2777 2777 2754 2754 2777 2777 1969 1969 1958 1958 1947 1936 1925 1925 1925 1915 1915 1915 1915 1915 1904 1904 1904 1904 1904 1904 1904 1904 1915 1894 1894 1904 1915 1925 1915 1904 1904 1904 1915 1915 1915 1915 1915 1915 1915 1904 1894 1894 1883 1883 1894 1894 1894 1894 1894 1904 1904 1904 1904 1904 1904 1904 1904 1904 1904 1883 1883 1883 1883 1883 1873 1873 1873 1883 1883 1883 1883 1883 1883 1894 1883 1883 1883 1873 1873 1873 1873 1873 1873 1873 1883 1894 1894 1883 1883 1894 1894 1883 1883 1883 1883 1894 1894 1894 1894 1894 1904 1915 1915 1915 1925 1925 1925 1925 1925 1925 1925 1925 1925 2967 2967 2942 2942 2942 2967 0 0 0 0 0 0 0 0 0 0 0 0 0 0 0 0 0 0 0 0 0 0 0 0 0 0 0 0 2690 2690 2711 2733 2733 2733 2733 2754 2754 2754 2777 2777 2777 2777 2799 2822 2845 2869 2869 2869 2893 2869 2869 2845 2845 2845 2869 2869 2869 2869 2869 2869 2869 2869 2845 2845 2845 2822 2822 2822 2822 2822 2799 2799 2799 2799 2799 2799 2799 2799 2777 2777 2777 2777 2777 2777 2754 2754 2754 2733 2733 2733 2733 2711 2711 2711 2711 2711 2711 2711 2711 2711 2711 2690 2690 2690 2690 2690 2690 2690 2690 2690 2690 2690 2690 2690 2669 2669 2669 2649 2649 2649 2669 2669 2649 2649 2649 2649 2629 2629 2629 2629 2629 2629 2609 2609 2609 2609 2609 2609 2609 2609 2609 2609 2609 2589 2589 2589 2570 1741 1741 1741 1741 1732 1732 1732 1732 1732 1732 1732 1732 1732 1723 1723 1723 1723 1723 1723 1723 1715 1715 1706 1706 1698 1698 1698 1698 1698 1698 1698 1698 1698 1698 1698 1698 0 0 0 0 0 0 2443 2443 2443 2460 2443 2443 2426 2426 2426 2426 2426 2426 2426 2426 2426 2409 2409 2409 2409 2409 2409 2409 2409 2409 2409 2297 2281 2281 2281 2281 2281 2281 2297 2297 2312 2312 2297 2297 2297 2297 2297 2297 2297 2281 2281 2281 2281 2281 2281 2281 2266 2266 2266 2266 2266 2266 2266 2266 2266 2281 2297 2297 2297 2297 2297 2297 2297 2281 2281 2297 2297 2281 2281 2281 2281 2281 2281 2281 2281 2266 2266 2281 2281 2266 2266 2266 2266 2266 2252 2252 2252 2252 2252 2237 2237 2237 2237 2237 2237 2237 2237 2237 2237 2237 2223 2223 2223 2223 2223 2223 2223 2223 2223 2208 2208 2208 2208 2208 2208 2208 2208 2208 2194 2194 2194 2181 2181 2181 2181 2181 2181 2181 2181 2181 2181 2181 2167 2167 2167 2167 2167 2167 2153 2153 2153 2153
0 0 0 0 0 0 0 0 0 0 0 0 0 0 0 0 0 0 0 0 0 0 0 0 0 0 0 0 0 0 0 0 0 0 0 0 0 0 0 0 0 0 0 0 0 0 0 0 0 0 0 0 0 0 0 0 0 0 0 0 0 0 0 2409 2409 2392 2392 2392 2392 2409 2409 2409 2409 2409 2409 2409 2426 2426 2443 2443 2460 2460 2460 2460 2460 2478 2478 2478 2478 2478 2478 2496 2496 2496 2496 2496 2514 2514 2514 2532 2532 2532 2532 2532 2532 2532 2551 2551 2551 2551 2551 2570 2570 2589 2589 2589 2589 2589 2589 2609 2609 2609 2609 2609 2609 2609 2609 2629 2629 2629 2629 2649 2649 2649 2649 2669 2669 2669 2669 2669 2669 2669 2669 2669 2669 2669 2669 2690 2690 2690 2690 2690 2690 2690 2690 2690 2690 2690 2690 2690 2690 2690 2711 2711 2711 2711 2711 2711 2711 2711 2733 2733 2733 2733 2733 2754 2754 2754 2754 2777 2777 2777 2754 2754 2777 1980 1969 1969 1958 1958 1958 1947 1947 1947 1925 1925 1925 1925 1915 1915 1915 1915 1915 1915 1915 1915 1915 1915 1936 1947 1947 1947 1947 1947 1947 1936 1925 1925 1936 1925 1925 1936 1936 1936 1936 1925 1925 1925 1915 1915 1925 1915 1915 1915 1915 1915 1915 1915 1915 1915 1915 1915 1915 1915 1904 1894 1894 1894 1894 1894 1883 1873 1873 1883 1883 1883 1883 1883 1883 1883 1883 1883 1883 1883 1883 1883 1883 1883 1894 1894 1904 1915 1915 1904 1904 1904 1904 1894 1894 1894 1894 1894 1904 1904 1904 1904 1915 1915 1915 1925 1925 1925 1925 1925 1925 1925 1925 1925 1925 1936 1936 1947 1947 1947 0 0 0 0 0 0 0 0 0 0 0 0 0 0 0 0 0 0 0 0 0 0 0 0 0 0 0 0 0 0 2733 2733 2733 2733 2733 2754 2754 2754 2754 2777 2777 2777 2777 2799 2822 2869 2869 2869 2869 2869 2869 2869 2845 2845 2845 2845 2845 2845 2845 2845 2869 2869 2869 2845 2845 2845 2822 2822 2822 2822 2799 2799 2799 2799 2799 2799 2799 2799 2799 2777 2777 2777 2777 2777 2777 2754 2754 2754 2733 2733 2733 2733 2711 2711 2733 2711 2711 2711 2711 2711 2711 2711 2711 2711 2690 2690 2690 2690 2690 2690 2690 2690 2690 2669 2669 2669 2669 2669 2649 2649 2649 2669 2649 2649 2649 2649 2649 2629 2629 2629 2629 2629 2629 2609 2609 2609 2609 2609 2609 2609 2609 2609 2609 2609 2589 2589 2589 2570 1741 1741 1741 1741 1732 1732 1732 1732 1732 1732 1732 1732 1732 1732 1723 1723 1723 1723 1723 1723 1715 1715 1706 1706 1698 1698 1698 1698 1698 1698 1698 1698 1698 1698 1698 1698 0 0 0 0 0 0 2443 2443 2443 2460 2460 2443 2443 2443 2443 2443 2443 2426 2426 2426 2426 2409 2409 2409 2409 2409 2409 2409 2409 2409 2409 2392 2297 2281 2281 2281 2281 2281 2297 2297 2312 2312 2297 2297 2297 2297 2297 2297 2281 2281 2281 2281 2266 2266 2281 2281 2266 2266 2266 2266 2266 2266 2266 2266 2266 2281 2297 2297 2297 2312 2312 2312 2297 2297 2297 2297 2297 2281 2281 2281 2281 2281 2281 2281 2281 2266 2266 2281 2281 2266 2266 2266 2266 2266 2252 2252 2252 2252 2237 2237 2237 2237 2237 2237 2252 2237 2237 2237 2237 2237 2223 2223 2223 2223 2223 2223 2223 2223 2223 2208 2208 2208 2208 2208 2208 2208 2208 2208 2194 2194 2194 2181 2181 2181 2181 2167 2167 2167 2167 2167 2181 2167 2167 2167 2167 2167 2167 2153 2153 2153 2153 2153
0 0 0 0 0 0 0 0 0 0 0 0 0 0 0 0 0 0 0 0 0 0 0 0 0 0 0 0 0 0 0 0 0 0 0 0 0 0 0 0 0 0 0 0 0 0 0 0 0 0 0 0 0 0 0 0 0 0 0 0 0 0 2392 2392 2409 2392 2392 2409 2409 2409 2409 2409 2409 2409 2409 2409 2426 2426 2443 2443 2443 2460 2460 2460 2460 2460 2460 2478 2478 2478 2478 2496 2496 2496 2496 2496 2514 2514 2532 2532 2532 2532 2532 2532 2532 2532 2551 2551 2551 2551 2551 2570 2570 2570 2589 2589 2589 2589 2589 2589 2609 2609 2609 2609 2609 2609 2609 2629 2629 2629 2629 2649 2649 2649 2649 2669 2669 2669 2669 2669 2669 2690 2690 2690 2690 2690 2690 2690 2690 2690 2690 2690 2690 2711 2690 2690 2690 2690 2711 2711 2711 2711 2711 2711 2711 2711 2711 2711 2733 2733 2733 2733 2733 2733 2733 2754 2754 2754 2754 2777 2777 2777 2754 1980 1980 1969 1969 1969 1958 1958 1958 1958 1947 1947 1936 1936 1925 1925 1925 1925 1925 1925 1925 1925 1925 1925 1936 1936 1958 1969 1958 1958 1958 1958 1958 1958 1947 1947 1947 1947 1947 1947 1947 1947 1947 1947 1947 1947 1936 1936 1936 1936 1936 1925 1925 1925 1925 1925 1925 1925 1925 1915 1915 1915 1915 1904 1904 1904 1894 1894 1883 1883 1883 1883 1883 1883 1883 1883 1883 1883 1883 1883 1883 1883 1883 1883 1883 1894 1904 1904 1915 1925 1925 1915 1915 1915 1915 1904 1904 1904 1904 1904 1915 1915 1915 1915 1925 1925 1925 1925 1925 1925 1925 1925 1925 1925 1925 1925 1925 1936 1936 1947 1947 1947 1958 0 0 0 0 0 0 0 0 0 0 0 0 0 0 0 0 0 0 0 0 0 0 0 0 0 0 0 0 0 2754 2754 2733 2733 2754 2754 2754 2754 2754 2754 2754 2777 2777 2799 2845 2869 2869 2869 2869 2869 2869 2869 2845 2845 2845 2845 2845 2845 2845 2845 2869 2869 2869 2845 2845 2845 2822 2822 2822 2822 2799 2799 2799 2799 2799 2799 2799 2777 2777 2777 2777 2777 2777 2777 2777 2754 2754 2754 2733 2733 2733 2733 2711 2711 2711 2711 2711 2711 2711 2711 2711 2711 2711 2711 2711 2690 2690 2690 2690 2690 2690 2690 2690 2669 2669 2669 2669 2669 2649 2649 2649 2649 2649 2649 2649 2649 2629 2629 2629 2629 2629 2629 2629 2609 2609 2609 2609 2609 2609 2609 2609 2609 2609 2609 2609 2589 2589 2589 1741 1741 1741 1741 1741 1741 1732 1732 1732 1732 1732 1732 1732 1723 1723 1723 1723 1723 1723 1715 1715 1715 1706 1706 1698 1698 1698 1698 1698 1698 1698 1698 1698 1698 1698 1698 0 0 0 0 0 0 2443 2443 2443 2460 2460 2443 2443 2443 2443 2443 2443 2426 2426 2426 2426 2409 2409 2409 2409 2409 2409 2409 2409 2409 2409 2392 2297 2281 2281 2281 2281 2281 2297 2297 2297 2297 2297 2297 2297 2297 2297 2281 2281 2281 2281 2281 2266 2266 2266 2266 2266 2266 2266 2266 2266 2266 2266 2266 2266 2281 2297 2297 2297 2312 2312 2312 2297 2297 2297 2297 2297 2281 2281 2281 2281 2281 2281 2281 2281 2281 2281 2281 2266 2266 2266 2266 2266 2266 2252 2252 2237 2237 2237 2237 2237 2237 2237 2237 2252 2237 2237 2237 2237 2237 2223 2223 2223 2223 2223 2223 2223 2223 2223 2208 2208 2208 2208 2208 2208 2208 2208 2208 2208 2208 2194 2194 2181 2181 2181 2167 2167 2167 2167 2167 2181 2167 2167 2167 2167 2153 2153 2153 2153 2153 2153 2153
0 0 0 0 0 0 0 0 0 0 0 0 0 0 0 0 0 0 0 0 0 0 0 0 0 0 0 0 0 0 0 0 0 0 0 0 0 0 0 0 0 0 0 0 0 0 0 0 0 0 2359 2359 2359 2359 2359 0 0 0 0 0 0 0 2392 2392 2409 2392 2392 2409 2409 2409 2409 2409 2392 2392 2409 2409 2409 2426 2443 2443 2443 2460 2460 2460 2460 2460 2460 2478 2478 2478 2478 2478 2496 2496 2496 2496 2496 2514 2514 2532 2532 2532 2532 2532 2532 2532 2551 2551 2551 2551 2551 2570 2570 2570 2589 2589 2589 2589 2589 2589 2609 2609 2609 2609 2609 2609 2609 2609 2609 2609 2629 2629 2629 2649 2649 2669 2669 2669 2669 2669 2690 2690 2690 2690 2690 2690 2690 2690 2690 2711 2711 2711 2711 2711 2711 2711 2711 2711 2711 2711 2711 2711 2711 2733 2733 2733 2733 2733 2733 2733 2733 2733 2733 2733 2733 2733 2754 2754 2754 2777 2777 1980 1980 1980 1980 1969 1969 1969 1969 1958 1958 1958 1958 1958 1969 1969 1936 1936 1936 1936 1936 1936 1936 1936 1958 1969 1969 1969 1969 1969 1969 1969 1969 1969 1969 1958 1958 1958 1958 1958 1958 1958 1958 1958 1958 1958 1958 1958 1947 1947 1947 1947 1947 1936 1936 1925 1925 1925 1925 1925 1925 1925 1925 1925 1925 1915 1915 1915 1904 1904 1915 0 0 0 1883 1883 1883 1883 1883 1894 1883 1883 1883 1883 1883 1883 1883 1894 1904 1915 1925 1925 1936 1925 1925 1925 1925 1915 1915 1915 1915 1925 1925 1925 1936 1936 1936 1936 1936 1936 1936 1936 1925 1925 1925 1925 1925 1925 1936 1936 1936 1947 1947 1947 1958 0 0 0 0 0 0 0 0 0 0 0 0 0 0 0 0 0 0 0 0 0 0 0 0 0 0 0 0 0 2754 2754 2733 2733 2733 2733 2733 2733 2754 2754 2754 2777 2777 2822 2845 2869 2869 2869 2869 2869 2869 2869 2845 2845 2869 2869 2869 2869 2869 2869 2869 2869 2869 2845 2822 2822 2822 2822 2822 2822 2799 2799 2799 2799 2799 2799 2799 2777 2777 2777 2777 2777 2777 2777 2777 2754 2754 2754 2733 2733 2733 2733 2711 2711 2711 2711 2711 2711 2711 2711 2711 2711 2711 2711 2690 2690 2690 2690 2690 2690 2690 2690 2690 2669 2669 2690 2669 2669 2669 2669 2649 2649 2649 2649 2649 2649 2629 2629 2629 2629 2629 2629 2629 2629 2629 2609 2609 2609 2609 2609 2609 2609 2609 2609 2609 2589 2589 2589 2570 1750 1741 1741 1741 1741 1732 1732 1732 1732 1732 1732 1732 1723 1723 1723 1723 1723 1723 1715 1715 1715 1706 1706 1698 1698 1698 1698 1698 1698 1698 1698 1698 1698 1698 0 0 0 0 0 0 0 2443 2443 2443 2443 2460 2460 2443 2443 2443 2426 2426 2426 2426 2426 2426 2409 2409 2409 2409 2409 2409 2409 2409 2409 2392 2392 2376 2281 2281 2297 2281 2281 2297 2297 2297 2297 2297 2297 2297 2297 2297 2281 2281 2281 2281 2281 2266 2266 2266 2266 2266 2266 2266 2266 2266 2266 2266 2266 2266 2281 2297 2297 2297 2312 2312 2312 2297 2297 2297 2297 2297 2281 2281 2281 2281 2281 2281 2281 2266 2266 2266 2266 2266 2266 2266 2266 2266 2266 2252 2237 2237 2237 2237 2237 2237 2237 2237 2237 2252 2252 2252 2237 2237 2237 2237 2223 2223 2223 2223 2223 2223 2223 2223 2208 2208 2208 2208 2208 2208 2208 2208 2208 2208 2208 2194 2194 2181 2181 2181 2167 2167 2181 2167 2167 2181 2167 2167 2167 2167 2153 2153 2153 2153 2153 2153 2153
0 0 0 0 0 0 0 0 0 0 0 0 0 0 0 0 0 0 0 0 0 0 0 0 0 0 0 0 0 0 0 0 0 0 0 0 0 0 0 0 0 0 0 0 0 0 0 0 2343 2343 2359 2359 2359 2359 2359 2359 2376 2359 2359 0 2392 2392 2392 2392 2409 2392 2392 2392 2392 2392 2392 2392 2392 2392 2409 2409 2409 2426 2426 2443 2443 2460 2460 2460 2460 2460 2460 2460 2478 2478 2478 2478 2496 2496 2496 2496 2496 2514 2514 2532 2532 2532 2532 2532 2532 2551 2551 2551 2551 2551 2551 2551 2570 2570 2570 2570 2589 2589 2589 2589 2609 2609 2609 2609 2609 2609 2609 2609 2609 2609 2629 2629 2629 2649 2649 2669 2669 2669 2690 2690 2690 2690 2690 2690 2690 2690 2690 2711 2711 2711 2711 2711 2711 2711 2711 2711 2711 2711 2711 2711 2711 2711 2733 2733 2733 2733 2733 2733 2733 2733 2733 2733 2733 2733 2733 2733 2754 2754 2754 1992 1980 1980 1980 1980 1980 1969 1969 1969 1969 1969 1969 1969 1969 1969 1969 1969 1958 1958 1958 1958 1958 1958 1969 1992 1980 1980 1992 1980 1980 1980 1980 1980 1980 1969 1969 1969 1969 1969 1969 1958 1958 1958 1958 1958 1958 1958 1958 1958 1958 1958 1958 1947 1947 1947 1947 1947 1947 1947 1936 1936 1936 1936 1925 1925 1925 1925 1925 1925 1915 1915 1925 0 0 0 1894 1894 0 1894 1894 1894 1894 0 0 1883 1883 1883 1894 1904 1915 1925 1936 1936 1936 1947 1936 1936 1936 1936 1936 1936 1936 1936 1947 1947 1947 1947 1947 1947 1947 1947 1947 1936 1936 1936 1936 1936 1936 1936 1936 1936 1936 1947 1947 1947 1958 1958 0 0 0 0 0 0 0 0 0 0 0 0 0 0 0 0 0 0 0 0 0 0 0 0 0 0 0 0 2777 2754 2733 2733 2733 2733 2733 2733 2754 2754 2777 2777 2799 2845 2845 2869 2869 2869 2869 2869 2869 2869 2869 2869 2869 2869 2869 2869 2869 2869 2869 2869 2869 2845 2822 2822 2822 2822 2822 2822 2799 2799 2799 2799 2799 2799 2799 2777 2777 2777 2777 2777 2777 2777 2777 2754 2754 2754 2733 2711 2711 2711 2711 2711 2711 2711 2711 2711 2711 2711 2711 2711 2690 2690 2690 2690 2690 2690 2690 2690 2690 2690 2690 2669 2669 2690 2669 2669 2669 2669 2669 2669 2649 2649 2649 2649 2649 2629 2629 2629 2629 2629 2629 2629 2629 2629 2609 2609 2609 2609 2609 2609 2609 2609 2609 2589 2589 2589 2570 1750 1750 1741 1741 1741 1732 1732 1732 1732 1732 1732 1732 1723 1723 1723 1723 1723 1723 1715 1715 1715 1715 1706 1698 1698 1698 1698 1698 1698 1698 1698 1698 1698 1698 1698 0 0 0 0 0 0 2443 2443 2443 2443 2460 2460 2443 2443 2443 2426 2426 2426 2426 2426 2426 2426 2409 2409 2409 2409 2409 2409 2409 2409 2392 2392 2359 2297 2297 2297 2297 2297 2297 2297 2312 2297 2297 2297 2297 2297 2297 2281 2281 2281 2281 2281 2281 2281 2281 2266 2266 2266 2266 2266 2266 2266 2266 2281 2281 2281 2297 2312 2312 2312 2312 2312 2312 2312 2312 2297 2297 2281 2281 2281 2281 2281 2281 2281 2266 2266 2266 2266 2266 2266 2266 2266 2266 2266 2252 2237 2237 2237 2237 2237 2237 2237 2237 2237 2252 2252 2252 2237 2237 2237 2237 2223 2223 2223 2223 2223 2223 2223 2223 2208 2208 2208 2208 2208 2208 2208 2208 2208 2208 2208 2208 2194 2181 2181 2181 2181 2181 2181 2167 2167 2181 2181 2167 2167 2167 2153 2153 2153 2153 2153 2153 2153
0 0 0 0 0 0 0 0 0 0 0 0 0 0 0 0 0 0 0 0 0 0 0 0 0 0 0 0 0 0 0 0 0 0 0 0 0 0 0 0 0 0 0 0 2327 2327 2327 2327 2343 2343 2343 2343 2343 2359 2359 2359 2359 2359 2359 2376 2392 2392 2392 2392 2392 2409 2392 2392 2392 2392 2392 2392 2392 2392 2409 2409 2409 2426 2426 2443 2443 2460 2460 2460 2460 2460 2460 2460 2478 2478 2478 2478 2478 2496 2496 2496 2496 2514 2514 2532 2532 2532 2532 2532 2551 2551 2551 2551 2551 2551 2551 2551 2570 2570 2570 2570 2589 2589 2589 2589 2609 2609 2609 2609 2609 2609 2609 2609 2609 2629 2629 2629 2629 2649 2649 2669 2669 2669 2690 2690 2690 2690 2690 2690 2690 2690 2690 2711 2711 2711 2711 2711 2711 2711 2733 2733 2733 2733 2733 2733 2754 2754 2754 2754 2754 2754 2754 2754 2754 2754 2733 2733 2733 2733 2733 2754 2754 2003 1992 1992 1980 1980 1980 1980 1980 1969 1969 1969 1969 1980 1969 1969 1980 1980 1980 1992 1969 1969 1969 1969 1992 1992 1992 1992 1992 1992 2003 1992 1992 1992 1992 1992 1992 1980 1980 1980 1980 1969 1969 1969 1969 1969 1969 1969 1969 1969 1969 1958 1958 1958 1958 1958 1958 1947 1947 1947 1958 1958 1947 1947 1947 1947 1936 1936 1936 1925 1925 1925 1925 1925 0 0 0 0 0 0 0 0 0 0 0 0 0 0 0 0 0 1925 1925 1936 1947 1947 1947 1947 1947 1947 1947 1958 1958 1958 1958 1958 1958 1958 1958 1958 1958 1958 1958 1958 1958 1958 1958 1947 1947 1936 1936 1936 1936 1947 1947 1947 1947 1947 1947 1958 0 0 0 0 0 0 0 0 0 0 0 0 0 0 0 0 0 0 0 0 0 0 0 0 0 0 0 2777 2777 2754 2733 2733 2733 2733 2733 2733 2733 2754 2777 2799 2799 2845 2869 2869 2869 2869 2869 2869 2869 2869 2869 2869 2869 2869 2869 2869 2869 2869 2869 2845 2845 2845 2845 2822 2822 2822 2822 2822 2822 2822 2799 2799 2799 2799 2799 2777 2777 2777 2777 2777 2777 2777 2777 2754 2754 2754 2733 2711 2711 2711 2711 2711 2711 2711 2711 2711 2711 2711 2711 2711 2690 2690 2690 2690 2690 2690 2690 2690 2690 2690 2690 2669 2669 2690 2669 2669 2669 2669 2669 2669 2669 2669 2649 2649 2649 2649 2629 2629 2629 2629 2629 2629 2629 2629 2609 2609 2609 2609 2609 2609 2609 2609 2609 2589 2589 2589 2589 1759 1750 1750 1741 1741 1741 1732 1732 1732 1732 1732 1732 1723 1723 1723 1723 1723 1723 1715 1715 1723 1715 1706 1706 1706 1706 1698 1698 1698 1698 1698 1698 1698 1698 1698 0 0 0 0 0 0 2460 2443 2443 2460 2460 2460 2443 2443 2443 2443 2426 2426 2426 2426 2426 2426 2409 2409 2409 2409 2409 2409 2409 2409 2392 2392 2359 2297 2297 2297 2297 2297 2297 2297 2312 2297 2297 2297 2297 2297 2297 2281 2281 2281 2281 2281 2281 2281 2281 2266 2266 2266 2266 2266 2266 2266 2266 2266 2266 2281 2281 2297 2297 2312 2312 2312 2312 2312 2312 2297 2297 2281 2281 2281 2281 2281 2281 2266 2266 2266 2266 2266 2266 2266 2266 2266 2266 2266 2252 2252 2237 2237 2237 2223 2223 2237 2237 2237 2252 2252 2252 2237 2237 2237 2223 2223 2223 2223 2223 2223 2223 2208 2208 2208 2208 2208 2208 2208 2208 2208 2208 2208 2194 2194 2194 2194 2181 2181 2181 2181 2181 2181 2167 2167 2181 2167 2167 2167 2153 2153 2153 2153 2153 2153 2153 2153
0 0 0 0 0 0 0 0 0 0 0 0 0 0 0 0 0 0 0 0 0 0 0 0 0 0 0 0 0 0 0 0 0 0 0 0 0 0 0 0 0 2327 2327 2327 2327 2327 2327 2327 2343 2343 2343 2343 2343 2359 2359 2359 2359 2359 2359 2359 2359 2359 2359 2376 2392 2392 2392 2392 2392 2392 2392 2409 2392 2392 2409 2409 2409 2426 2443 2443 2443 2460 2460 2460 2460 2460 2460 2478 2478 2478 2478 2478 2478 2478 2478 2496 2496 2514 2514 2532 2532 2532 2532 2551 2551 2551 2551 2551 2551 2551 2551 2570 2570 2570 2570 2570 2589 2589 2589 2589 2609 2609 2609 2609 2609 2609 2609 2609 2609 2629 2629 2629 2629 2649 2649 2669 2669 2690 2690 2690 2690 2690 2690 2690 2690 2690 2690 2711 2711 2711 2711 2711 2711 2711 2733 2733 2733 2754 2754 2754 2754 2754 2754 2777 2777 2777 2754 2754 2754 2754 2733 2733 2733 2733 2733 2754 2754 1992 1992 1992 1980 1980 1980 1980 1980 1980 1980 1980 1980 1980 1980 1980 1992 1992 1992 2003 2003 2003 1992 1992 2003 2003 2003 2003 2003 2003 2003 2003 2003 2003 2003 1992 1992 1980 1980 1992 1992 1980 1980 1980 1980 1980 1980 1980 1969 1969 1969 1969 1969 1969 1969 1958 1958 1958 1958 1958 1958 1958 1958 1958 1958 1958 1958 1936 1936 1947 0 0 0 0 0 0 0 0 0 0 0 0 0 0 0 0 0 0 0 0 0 0 0 1947 1947 1947 1947 1947 1947 1958 1958 1958 1969 1969 1969 1969 1969 1969 1969 1969 1969 1969 1969 1969 1958 1958 1958 1958 1947 1936 1936 1936 1936 1947 1947 1947 1947 1947 1947 1958 0 0 0 0 0 0 0 0 0 0 0 0 0 0 0 0 0 0 0 0 0 0 0 0 0 0 0 2777 2777 2733 2733 2733 2733 2733 2733 2733 2733 2754 2777 2799 2799 2845 2869 2869 2869 2869 2869 2869 2869 2869 2869 2869 2869 2869 2869 2869 2869 2869 2869 2845 2845 2845 2845 2822 2822 2822 2822 2822 2822 2822 2799 2799 2799 2799 2799 2777 2777 2777 2777 2777 2777 2777 2777 2754 2754 2754 2733 2711 2711 2711 2711 2711 2711 2711 2711 2711 2711 2711 2711 2711 2711 2711 2690 2690 2690 2690 2690 2690 2690 2690 2690 2690 2690 2690 2669 2669 2669 2669 2669 2669 2669 2649 2649 2649 2649 2649 2629 2629 2629 2629 2629 2629 2629 2629 2609 2609 2609 2609 2609 2609 2609 2609 2609 2589 2589 2589 2589 1759 1759 1750 1750 1750 1741 1732 1732 1732 1732 1732 1732 1723 1723 1723 1723 1723 1723 1715 1715 1723 1715 1715 1706 1706 1698 1698 1698 1698 1698 1698 1698 1698 1690 1690 0 0 0 0 0 0 2443 2443 2443 2460 2460 2460 2443 2443 2443 2426 2426 2426 2426 2426 2426 2426 2409 2409 2409 2409 2409 2409 2409 2409 2392 2392 2359 2297 2297 2297 2297 2297 2297 2297 2312 2312 2312 2297 2297 2297 2297 2281 2281 2281 2281 2281 2281 2281 2266 2266 2266 2266 2266 2266 2266 2266 2266 2266 2266 2281 2281 2297 2297 2312 2312 2312 2312 2312 2312 2297 2297 2281 2281 2281 2281 2281 2281 2266 2266 2266 2266 2266 2266 2252 2252 2266 2266 2266 2252 2252 2252 2237 2237 2223 2223 2223 2223 2237 2237 2237 2237 2237 2223 2223 2223 2223 2223 2223 2223 2223 2223 2208 2208 2208 2208 2208 2208 2208 2194 2194 2194 2208 2194 2194 2194 2181 2181 2181 2181 2167 2167 2181 2167 2167 2181 2167 2167 2167 2153 2153 2153 2153 2153 2153 2153 2153
0 0 0 0 0 0 0 0 0 0 0 0 0 0 0 0 0 0 0 0 0 0 0 0 0 0 0 0 0 0 0 0 2281 2281 2281 2281 2281 2281 2281 2281 2297 2312 2327 2327 2327 2327 2327 2327 2343 2343 2343 2343 2343 2343 2343 2359 2359 2359 2359 2359 2359 2359 2359 2376 2392 2392 2392 2392 2392 2409 2409 2409 2409 2409 2409 2409 2426 2426 2443 2443 2443 2443 2460 2460 2460 2460 2460 2460 2478 2478 2478 2478 2478 2478 2478 2496 2496 2514 2514 2532 2532 2532 2532 2551 2551 2551 2551 2551 2551 2551 2551 2570 2570 2570 2570 2570 2570 2570 2589 2589 2609 2609 2609 2609 2609 2609 2609 2609 2609 2629 2629 2629 2629 2649 2649 2669 2669 2690 2690 2690 2690 2690 2690 2690 2690 2690 2690 2711 2711 2711 2711 2711 2711 2711 2733 2733 2754 2754 2754 2754 2777 2777 2777 2777 2777 2777 2777 2777 2777 2754 2754 2754 2754 2754 2754 2754 2015 1992 1992 1992 1980 1980 1980 1980 1980 1980 1980 1980 1980 1992 1992 1992 1992 1992 2003 2003 2003 2003 2003 2003 2015 2015 2003 2003 2015 2015 2015 2015 2015 2015 2015 2015 2015 2003 2003 2003 2003 1992 1992 2003 1992 1992 1980 1980 1980 1980 1980 1969 1969 1969 1969 1969 1969 1969 1969 1969 1958 1958 1958 1958 1969 1969 1992 1992 1958 1958 0 0 0 0 0 0 0 0 0 0 0 0 0 0 0 0 0 0 0 0 0 0 0 0 1947 1947 1947 1958 1958 1969 1969 1969 1969 1980 1980 1980 1980 1980 1980 1969 1969 1969 1969 1969 1969 1969 1969 1969 1947 1947 1936 1936 1936 1947 1947 1936 1936 1947 1958 1958 0 0 0 0 0 0 0 0 0 0 0 0 0 0 0 0 0 0 0 0 0 0 0 0 0 0 0 2777 2777 2733 2733 2733 2733 2733 2733 2733 2754 2754 2777 2799 2822 2845 2869 2869 2869 2869 2869 2869 2869 2869 2869 2869 2869 2869 2869 2869 2869 2869 2845 2845 2845 2845 2845 2845 2822 2822 2822 2822 2822 2822 2799 2799 2799 2799 2799 2777 2777 2777 2777 2777 2777 2777 2754 2754 2733 2733 2733 2711 2711 2711 2711 2711 2711 2711 2711 2711 2711 2711 2711 2711 2711 2711 2711 2711 2690 2690 2690 2690 2690 2690 2690 2690 2690 2690 2690 2690 2669 2669 2669 2669 2649 2649 2649 2649 2649 2649 2629 2629 2629 2629 2629 2629 2629 2629 2609 2609 2609 2609 2609 2609 2609 2609 2609 2609 2609 2609 2609 1759 1759 1750 1750 1750 1741 1732 1732 1732 1732 1732 1732 1723 1723 1723 1723 1723 1723 1723 1723 1715 1715 1715 1706 1706 1698 1698 1690 1690 1690 1690 1698 1698 1690 1690 0 0 0 0 0 0 2426 2426 2443 2443 2443 2460 2443 2443 2443 2426 2426 2426 2426 2426 2426 2426 2409 2409 2409 2409 2409 2409 2409 2409 2392 2392 2376 2297 2297 2297 2297 2297 2297 2297 2297 2297 2297 2297 2297 2297 2297 2297 2297 2297 2281 2281 2281 2281 2266 2266 2266 2266 2266 2266 2266 2266 2266 2266 2281 2281 2281 2297 2297 2312 2312 2312 2312 2312 2297 2297 2297 2281 2281 2281 2281 2281 2281 2281 2266 2266 2266 2266 2266 2252 2252 2266 2266 2266 2252 2237 2237 2237 2237 2223 2223 2223 2223 2223 2237 2237 2237 2223 2223 2223 2223 2223 2223 2223 2223 2223 2223 2223 2208 2208 2208 2208 2208 2208 2194 2194 2194 2194 2194 2194 2194 2181 2181 2181 2181 2167 2167 2167 2167 2167 2167 2167 2167 2153 2153 2153 2153 2153 2153 2153 2153 2153
0 0 0 0 0 0 0 0 0 0 0 0 0 0 0 0 0 0 0 0 0 2237 2237 2237 2237 0 0 0 0 0 2281 2281 2266 2266 2281 2281 2281 2281 2281 2281 2297 2312 2312 2327 2327 2327 2327 2327 2327 2327 2343 2343 2343 2343 2343 2359 2359 2359 2359 2359 2359 2359 2359 2376 2392 2392 2392 2392 2392 2409 2409 2409 2409 2409 2409 2409 2426 2426 2443 2443 2443 2443 2460 2460 2460 2460 2460 2460 2478 2478 2478 2478 2478 2478 2478 2496 2496 2514 2532 2532 2532 2532 2532 2551 2551 2551 2551 2551 2551 2551 2551 2570 2570 2570 2570 2570 2570 2570 2589 2589 2589 2609 2609 2609 2609 2609 2609 2609 2609 2629 2629 2629 2629 2649 2649 2669 2669 2690 2690 2690 2690 2690 2690 2690 2690 2711 2711 2711 2711 2711 2711 2711 2711 2733 2733 2733 2754 2754 2754 2777 2777 2777 2777 2777 2777 2777 2799 2799 2799 2777 2777 2777 2777 2777 2777 2777 2003 1992 1992 1992 1992 1980 1980 1992 1992 1992 1992 1992 1992 1992 1992 2003 2003 2003 2003 2015 2015 2015 2015 2015 2015 2015 2015 2015 2015 2027 2027 2027 2027 2027 2027 2027 2027 2015 2015 2039 2039 2015 2015 2015 2003 2003 1992 1992 1992 1992 1992 1980 1980 1980 0 0 0 0 0 0 0 0 1958 1958 1969 1969 1992 0 0 0 0 0 0 0 0 0 0 0 0 0 0 0 0 0 0 0 0 0 0 0 0 0 0 0 0 0 0 0 1969 1969 1969 1969 1980 1980 1980 1980 1980 1980 1980 1980 1980 1980 1980 1980 1969 1969 1980 1980 1992 0 0 0 0 1947 1947 1936 1936 1947 0 0 0 0 0 0 0 0 0 0 0 0 0 0 0 0 0 0 0 0 0 0 0 0 0 0 0 0 0 0 2733 2733 2733 2733 2733 2733 2733 2733 2754 2777 2799 2822 2845 2845 2869 2869 2869 2869 2869 2869 2869 2869 2869 2869 2869 2869 2869 2869 2845 2845 2845 2845 2845 2845 2845 2845 2822 2822 2822 2822 2822 2822 2799 2799 2799 2799 2799 2777 2777 2777 2777 2777 2777 2777 2754 2754 2733 2733 2733 2711 2711 2711 2711 2711 2711 2711 2711 2711 2711 2711 2711 2711 2711 2711 2711 2711 2690 2690 2711 2690 2690 2690 2690 2690 2690 2690 2690 2690 2669 2669 2669 2649 2649 2649 2649 2649 2649 2649 2629 2629 2629 2629 2629 2629 2629 2609 2609 2609 2609 2609 2609 2609 2609 2609 2609 2609 2609 2609 2609 1759 1759 1750 1750 1750 1741 1732 1732 1732 1732 1732 1732 1723 1723 1723 1723 1723 1723 1723 1723 1715 1715 1715 1706 1706 1706 1698 1690 1690 1690 1690 1698 1698 1690 1690 0 0 0 0 0 0 2426 2426 2426 2443 2443 2460 2443 2443 2443 2443 2426 2426 2426 2426 2426 2426 2426 2426 2409 2409 2409 2409 2409 2409 2392 2392 2376 2359 2312 2297 2281 2281 2297 2297 2297 2297 2297 2297 2297 2297 2297 2297 2297 2297 2281 2281 2281 2281 2281 2281 2266 2266 2266 2266 2266 2266 2266 2266 2281 2281 2281 2297 2297 2312 2312 2312 2312 2297 2297 2297 2297 2281 2281 2281 2281 2281 2281 2281 2266 2266 2266 2266 2266 2252 2252 2266 2266 2266 2252 2237 2237 2237 2237 2223 2223 2223 2223 2223 2237 2237 2223 2223 2223 2223 2223 2223 2208 2208 2223 2223 2223 2208 2208 2208 2208 2208 2208 2194 2194 2194 2194 2194 2194 2194 2194 2181 2181 2181 2181 2167 2167 2167 2167 2167 2167 2167 2167 2153 2153 2153 2153 2153 2153 2153 2153 2153
0 0 0 0 0 0 0 0 0 0 0 0 0 0 0 0 0 0 2223 2223 2223 2223 2223 2223 2237 2237 2252 2266 2266 2281 2281 2281 2266 2266 2281 2281 2281 2281 2281 2281 2297 2297 2312 2312 2312 2312 2327 2327 2327 2327 2327 2343 2343 2343 2343 2359 2359 2359 2359 2359 2376 2359 2359 2376 2392 2392 2392 2392 2392 2409 2409 2409 2409 2409 2409 2426 2426 2426 2443 2443 2443 2443 2460 2460 2460 2460 2460 2460 2478 2478 2478 2478 2478 2478 2478 2478 2496 2514 2532 2532 2532 2532 2532 2551 2551 2551 2551 2551 2551 2551 2551 2551 2551 2551 2570 2570 2570 2589 2589 2589 2589 2609 2609 2609 2609 2609 2609 2629 2629 2629 2629 2629 2629 2629 2649 2649 2669 2669 2690 2690 2690 2690 2690 2690 2690 2711 2711 2711 2711 2711 2711 2711 2711 2711 2733 2754 2754 2754 2754 2777 2777 2777 2777 2777 2777 2777 2799 2799 2799 2799 2799 2799 2799 2799 2799 2799 2003 1992 1992 1992 1992 1992 1992 1992 1992 1992 1992 1992 2003 2003 2003 2003 2015 2015 2015 2015 2015 2015 2015 2015 2027 2027 2027 2027 2027 2039 2039 2039 2039 2039 2039 2039 2039 2051 2051 2051 2051 2039 2039 2039 2015 2015 2003 2003 2003 2003 0 0 0 0 0 0 0 0 0 0 0 0 1969 1969 1969 1992 1992 0 0 0 0 0 0 0 0 0 0 0 0 0 0 0 0 0 0 0 0 0 0 0 0 0 0 0 0 0 0 0 0 0 1980 1980 1980 1980 1980 1980 1980 1980 1980 1980 1980 1980 1980 1992 1980 1980 1992 2003 2003 0 0 0 0 0 0 0 0 0 0 0 0 0 0 0 0 0 0 0 0 0 0 0 0 0 0 0 0 0 0 0 0 0 0 0 0 0 0 0 0 2733 2733 2733 2754 2754 2754 2754 2754 2777 2799 2822 2845 2845 2869 2869 2869 2869 2869 2869 2869 2869 2869 2869 2869 2869 2869 2869 2845 2845 2845 2845 2845 2845 2845 2845 2845 2822 2822 2822 2822 2822 2799 2799 2799 2799 2799 2777 2777 2777 2777 2777 2777 2777 2754 2754 2733 2733 2733 2733 2711 2711 2711 2711 2711 2711 2711 2711 2711 2711 2711 2711 2711 2711 2711 2711 2690 2690 2690 2690 2690 2690 2690 2690 2690 2690 2690 2690 2669 2669 2669 2649 2649 2649 2649 2649 2649 2649 2629 2629 2629 2629 2629 2629 2629 2609 2609 2609 2609 2609 2609 2609 2609 2609 2609 2609 2609 2609 2609 1759 1759 1759 1750 1750 1741 1741 1732 1732 1732 1732 1732 1723 1723 1723 1723 1723 1723 1723 1723 1715 1715 1715 1706 1706 1698 1698 1698 1690 1690 1698 1698 1698 1698 1698 0 0 0 0 0 0 2426 2426 2426 2443 2443 2460 2443 2443 2443 2426 2426 2426 2426 2426 2426 2426 2426 2426 2426 2409 2409 2409 2409 2409 2392 2392 2376 2359 2297 2281 2281 2281 2281 2297 2297 2297 2312 2297 2297 2312 2312 2297 2297 2297 2281 2281 2281 2281 2281 2281 2266 2266 2266 2266 2266 2266 2266 2266 2281 2281 2281 2297 2297 2312 2312 2312 2297 2297 2297 2297 2281 2281 2281 2281 2281 2281 2266 2266 2266 2266 2266 2266 2266 2266 2266 2266 2266 2252 2252 2252 2252 2237 2237 2223 2223 2223 2223 2223 2223 2223 2223 2223 2223 2223 2223 2223 2208 2208 2223 2223 2223 2208 2208 2208 2208 2208 2194 2194 2194 2194 2194 2194 2194 2194 2194 2181 2181 2181 2181 2181 2181 2181 2181 2181 2167 2167 2167 2153 2153 2153 2153 2153 2153 2153 2153 2153
0 0 0 0 0 0 0 0 0 0 0 0 0 0 0 0 0 2208 2208 2208 2208 2208 2223 2223 2237 2237 2237 2237 2237 2266 2266 2281 2266 2266 2281 2281 2281 2281 2281 2281 2281 2297 2297 2297 2312 2312 2327 2327 2327 2327 2327 2343 2343 2343 2343 2343 2359 2359 2359 2359 2359 2359 2359 2376 2392 2392 2392 2392 2392 2409 2409 2409 2409 2409 2409 2426 2426 2426 2443 2443 2443 2443 2443 2460 2460 2460 2460 2460 2478 2478 2478 2478 2478 2478 2478 2478 2496 2514 2514 2532 2532 2532 2532 2551 2551 2551 2551 2551 2551 2551 2551 2551 2551 2551 2570 2570 2570 2589 2589 2589 2609 2609 2609 2609 2609 2609 2609 2629 2629 2629 2629 2629 2629 2629 2649 2649 2669 2669 2690 2690 2690 2690 2690 2690 2711 2711 2711 2711 2711 2711 2711 2711 2711 2711 2733 2754 2754 2754 2754 2777 2777 2777 2777 2777 2777 2777 2799 2799 2799 2799 2799 2822 2822 2845 2822 2822 2845 2893 1980 1980 1992 1992 1992 1992 1992 1992 1992 2003 2003 2003 2003 2015 2015 2015 2015 2015 2027 2027 2027 2027 2027 2039 2039 2039 2039 2051 2051 2051 2051 2051 2051 2051 2051 2063 2063 2063 2063 2063 2063 2051 2039 2039 2027 2027 2027 2027 0 0 0 0 0 0 0 0 0 0 0 0 0 0 0 0 0 0 0 0 0 0 0 0 0 0 0 0 0 0 0 0 0 0 0 0 0 0 0 0 0 0 0 0 0 0 0 0 0 0 0 1980 1980 1980 1980 1980 1980 1980 1980 1980 1980 1980 1992 1992 1992 1992 2003 2015 2015 0 0 0 0 0 0 0 0 0 0 0 0 0 0 0 0 0 0 0 0 0 0 0 0 0 0 0 0 0 0 0 0 0 0 0 0 0 0 0 2777 2754 2733 2733 2754 2754 2754 2754 2777 2777 2799 2822 2845 2845 2845 2869 2869 2869 2869 2869 2869 2869 2869 2869 2869 2869 2869 2869 2869 2869 2845 2845 2845 2845 2845 2845 2822 2822 2822 2822 2822 2799 2799 2799 2799 2799 2799 2777 2777 2777 2777 2777 2777 2777 2754 2754 2733 2733 2733 2733 2733 2711 2711 2711 2711 2711 2711 2711 2711 2711 2711 2711 2711 2711 2711 2711 2690 2690 2690 2690 2690 2690 2690 2690 2690 2690 2690 2690 2669 2669 2669 2649 2649 2649 2649 2649 2649 2649 2629 2629 2629 2629 2629 2629 2629 2609 2609 2609 2609 2609 2609 2609 2609 2609 2609 2609 2609 2609 2609 1759 1759 1759 1750 1750 1750 1741 1732 1732 1732 1732 1732 1723 1723 1723 1723 1723 1723 1723 1715 1715 1715 1715 1706 1706 1698 1698 1698 1698 1698 1698 1698 1698 1698 1698 0 0 0 0 0 2443 2426 2426 2443 2443 2443 2443 2443 2443 2443 2426 2426 2426 2426 2426 2426 2426 2426 2426 2426 2409 2409 2409 2409 2409 2409 2392 2392 2376 2297 2281 2281 2281 2281 2297 2297 2312 2312 2312 2312 2312 2312 2297 2297 2281 2281 2281 2281 2281 2281 2281 2266 2266 2266 2266 2266 2266 2266 2266 2281 2281 2281 2297 2312 2312 2312 2297 2297 2297 2297 2281 2281 2281 2281 2281 2281 2281 2266 2266 2266 2266 2266 2266 2252 2252 2266 2266 2266 2252 2252 2252 2252 2237 2237 2223 2223 2223 2223 2223 2223 2223 2223 2223 2223 2223 2223 2223 2208 2208 2223 2208 2208 2208 2208 2208 2194 2194 2194 2194 2194 2194 2194 2194 2194 2194 2194 2181 2181 2181 2181 2181 2181 2181 2167 2167 2167 2167 2167 2153 2153 2153 2153 2153 2153 2140 2140 2153
0 0 0 0 0 0 0 0 0 0 0 0 0 0 0 0 2208 2208 2208 2208 2208 2208 2223 2223 2237 2237 2237 2237 2237 2252 2266 2266 2266 2266 2266 2281 2281 2281 2281 2281 2281 2297 2297 2297 2312 2312 2312 2312 2327 2327 2327 2327 2343 2343 2343 2343 2359 2359 2359 2376 2359 2359 2359 2376 2392 2409 2409 2409 2409 2409 2409 2409 2409 2409 2409 2426 2426 2426 2443 2443 2443 2443 2443 2460 2460 2460 2460 2460 2478 2478 2478 2478 2478 2478 2478 2496 2496 2514 2514 2532 2532 2532 2532 2551 2551 2551 2551 2551 2551 2551 2551 2551 2551 2551 2570 2570 2570 2589 2589 2589 2609 2609 2609 2609 2629 2629 2629 2629 2629 2629 2629 2629 2629 2649 2649 2649 2669 2669 2690 2690 2690 2690 2690 2690 2690 2711 2711 2711 2711 2711 2711 2711 2711 2711 2733 2754 2754 2754 2754 2777 2777 2777 2777 2777 2777 2777 2799 2799 2799 2799 2799 2822 2845 2845 2845 2845 2869 2893 1980 1980 1992 1992 1992 1992 1992 1992 2003 2003 2003 2003 2003 2015 2015 2015 2015 2027 2027 2027 2027 2027 2039 2039 2051 2051 2051 2051 2051 2051 2051 2051 2063 2063 2063 2063 2063 2063 2076 2063 2063 2063 2063 2063 2051 2051 2051 0 0 0 0 0 0 0 0 0 0 0 0 0 0 0 0 0 0 0 0 0 0 0 0 0 0 0 0 0 0 0 0 0 0 0 0 0 0 0 0 0 0 0 0 0 0 0 0 0 0 0 0 1980 1980 1980 1980 1980 1980 1980 1980 1980 1980 1980 1992 1992 1992 1992 2003 2015 0 0 0 0 0 0 0 0 0 0 0 0 0 0 0 0 0 0 0 0 0 0 0 0 0 0 0 0 0 0 0 0 0 0 0 0 0 0 0 2777 2777 2754 2754 2754 2754 2777 2777 2777 2777 2799 2799 2799 2822 2822 2845 2845 2869 2869 2869 2869 2869 2869 2869 2869 2869 2869 2869 2869 2869 2869 2845 2845 2845 2845 2845 2845 2822 2822 2822 2822 2799 2799 2799 2799 2799 2799 2777 2777 2777 2777 2777 2777 2777 2777 2754 2754 2733 2733 2733 2733 2733 2711 2711 2711 2711 2711 2711 2711 2711 2711 2711 2711 2711 2711 2711 2711 2690 2690 2690 2690 2690 2690 2690 2690 2690 2690 2669 2669 2669 2669 2669 2649 2649 2649 2649 2649 2629 2629 2629 2629 2629 2629 2629 2629 2609 2609 2609 2609 2609 2609 2609 2609 2609 2609 2609 2609 2609 2609 2609 1750 1750 1750 1750 1750 1741 1732 1732 1732 1732 1732 1732 1723 1723 1723 1723 1723 1723 1723 1715 1715 1715 1706 1706 1698 1698 1698 1698 1698 1698 1698 1698 1698 1698 1698 0 0 0 0 0 2443 2443 2443 2443 2443 2443 2443 2443 2443 2443 2426 2426 2426 2409 2409 2409 2426 2426 2426 2409 2409 2409 2409 2409 2409 2409 2409 2392 2376 2297 2281 2281 2281 2281 2297 2297 2297 2312 2312 2312 2312 2297 2297 2297 2281 2281 2281 2281 2281 2281 2266 2266 2266 2266 2266 2266 2266 2266 2266 2281 2281 2281 2297 2297 2312 2312 2297 2297 2281 2281 2281 2281 2281 2281 2281 2281 2281 2266 2266 2266 2266 2266 2252 2252 2252 2266 2266 2266 2266 2252 2252 2252 2252 2237 2223 2223 2223 2223 2223 2223 2223 2223 2223 2223 2223 2223 2223 2208 2208 2223 2208 2208 2208 2208 2208 2194 2194 2194 2194 2194 2194 2194 2194 2194 2181 2181 2181 2181 2181 2181 2181 2181 2181 2167 2167 2167 2167 2167 2153 2153 2153 2153 2153 2153 2140 2140 2153
0 0 0 0 0 0 0 0 0 0 0 0 0 0 0 2194 2194 2194 2208 2208 2208 2223 2223 2223 2237 2237 2237 2252 2252 2252 2266 2266 2266 2266 2266 2281 2281 2281 2281 2281 2281 2297 2297 2297 2312 2312 2312 2312 2327 2327 2327 2327 2343 2343 2343 2343 2343 2359 2359 2376 2376 2376 2376 2392 2392 2409 2409 2409 2409 2409 2409 2409 2409 2409 2409 2426 2426 2426 2443 2443 2443 2443 2443 2460 2460 2460 2460 2460 2478 2478 2478 2478 2478 2478 2496 2496 2496 2514 2532 2532 2532 2532 2532 2551 2551 2551 2551 2551 2551 2551 2551 2551 2551 2551 2570 2570 2570 2589 2609 2609 2609 2609 2609 2629 2629 2629 2629 2629 2629 2629 2629 2629 2629 2649 2649 2669 2669 2669 2690 2690 2690 2690 2690 2690 2690 2711 2711 2711 2711 2711 2711 2711 2711 2711 2733 2754 2754 2754 2754 2777 2777 2777 2777 2777 2777 2777 2799 2799 2799 2799 2799 2822 2822 2845 2845 2845 2845 2869 1969 1969 1980 1980 1980 1992 1992 1992 2003 2003 2003 2003 2003 2015 2015 2015 2015 2027 2027 2027 2039 2039 2039 2051 2051 2051 2051 2051 2051 2051 2063 2063 2063 2063 2063 2063 2076 2076 2076 2076 2076 2076 2076 2076 2063 2063 2063 2101 0 0 0 0 0 0 0 0 0 0 0 0 0 0 0 0 0 0 0 0 0 0 0 0 0 0 0 0 0 0 0 0 0 0 0 0 0 0 0 0 0 0 0 0 0 0 0 0 0 0 0 0 1980 1958 1958 1969 1969 1980 1980 1980 1969 1969 1980 0 0 0 0 0 0 0 0 0 0 0 0 0 0 0 0 0 0 0 0 0 0 0 0 0 0 0 0 0 0 0 0 0 0 0 0 0 0 0 0 2993 2993 0 0 2777 2754 2754 2754 2754 2777 2777 2777 2777 2799 2799 2799 2799 2799 2822 2845 2845 2869 2869 2869 2869 2869 2869 2869 2869 2869 2869 2869 2869 2869 2869 2845 2845 2845 2845 2845 2822 2822 2822 2822 2822 2799 2799 2799 2799 2799 2777 2777 2777 2777 2777 2777 2777 2777 2777 2754 2754 2754 2754 2754 2733 2733 2733 2711 2711 2711 2711 2711 2711 2711 2711 2711 2711 2711 2711 2711 2690 2690 2690 2690 2690 2690 2690 2690 2690 2690 2690 2669 2669 2669 2669 2649 2649 2649 2629 2629 2629 2629 2629 2629 2629 2629 2629 2629 2629 2609 2609 2609 2609 2609 2609 2609 2609 2609 2609 2609 2589 2589 2589 2609 1750 1750 1750 1750 1741 1741 1732 1732 1732 1732 1732 1732 1723 1723 1723 1723 1723 1723 1723 1715 1715 1715 1706 1706 1698 1698 1698 1698 1698 1698 1698 1698 1698 1698 1698 1698 0 0 0 0 2443 2443 2443 2443 2443 2443 2443 2443 2443 2443 2426 2426 2426 2409 2409 2409 2409 2409 2409 2409 2409 2409 2409 2409 2409 2409 2392 2392 2359 2343 2281 2281 2281 2281 2297 2297 2297 2312 2297 2297 2312 2297 2297 2297 2281 2281 2281 2281 2281 2281 2266 2266 2266 2266 2266 2266 2266 2266 2266 2281 2281 2281 2281 2297 2312 2297 2297 2281 2281 2281 2281 2281 2281 2281 2281 2281 2281 2266 2266 2266 2266 2266 2252 2252 2266 2266 2266 2266 2266 2252 2252 2252 2252 2237 2223 2223 2223 2223 2223 2223 2223 2223 2223 2223 2223 2208 2208 2208 2208 2208 2208 2208 2208 2208 2208 2208 2208 2194 2194 2194 2194 2194 2194 2194 2181 2181 2181 2181 2181 2181 2181 2181 2167 2167 2167 2167 2167 2167 2153 2153 2153 2153 2153 2153 2140 2140 2153
0 0 0 0 0 0 0 0 0 0 0 0 0 0 2181 2181 2194 2194 2208 2208 2208 2223 2223 2223 2237 2237 2252 2252 2252 2252 2266 2266 2266 2266 2266 2281 2281 2281 2281 2281 2281 2297 2297 2297 2312 2312 2312 2312 2327 2327 2327 2327 2343 2343 2343 2343 2343 2359 2376 2376 2376 2376 2376 2392 2392 2409 2409 2409 2409 2409 2409 2409 2426 2409 2409 2426 2426 2426 2443 2443 2443 2443 2443 2460 2460 2460 2460 2460 2478 2478 2478 2478 2478 2478 2496 2496 2496 2514 2532 2532 2532 2532 2532 2551 2551 2551 2551 2551 2551 2551 2551 2551 2551 2551 2570 2570 2570 2589 2589 2589 2589 2609 2609 2609 2609 2629 2629 2629 2629 2629 2629 2629 2629 2649 2649 2669 2669 2669 2690 2690 2690 2690 2690 2690 2690 2711 2711 2711 2711 2711 2711 2711 2711 2711 2733 2754 2754 2754 2754 2777 2777 2777 2777 2777 2777 2777 2799 2799 2799 2799 2799 2822 2822 2822 2845 2822 2822 2869 1969 1969 1980 1969 1969 1980 1980 1992 2003 2003 2003 2003 2015 2015 2015 2015 2027 2027 2027 2039 2039 2039 2051 2051 2051 2051 2063 2063 2063 2063 2063 2063 2063 2063 2076 2076 2076 2088 2088 2088 2088 2088 2088 2088 2088 2088 2101 0 0 0 0 0 0 0 0 0 0 0 0 0 0 0 0 0 0 0 0 0 0 0 0 0 0 0 0 0 0 0 0 0 0 0 0 0 0 0 0 0 0 0 0 0 0 0 0 0 0 0 0 0 0 1958 1958 1969 1969 1980 1980 1969 1969 1969 1969 0 0 0 0 0 0 0 0 0 0 0 0 0 0 0 0 0 0 0 0 0 0 0 0 0 0 0 0 2967 2967 2967 2967 2967 2967 2993 2993 2993 2993 2967 2967 2993 2993 2993 2777 2777 2754 2754 2754 2754 2777 2777 2777 2777 2799 2799 2799 2799 2799 2822 2845 2869 2869 2869 2869 2869 2869 2869 2869 2869 2869 2869 2869 2869 2869 2869 2845 2845 2845 2845 2845 2822 2822 2822 2822 2822 2799 2799 2799 2799 2799 2777 2777 2777 2777 2777 2777 2777 2777 2777 2777 2754 2754 2754 2754 2733 2733 2733 2711 2711 2711 2711 2711 2711 2711 2711 2711 2711 2711 2711 2711 2690 2690 2690 2690 2690 2690 2690 2690 2690 2690 2690 2669 2669 2669 2669 2649 2649 2649 2629 2629 2629 2629 2629 2629 2629 2629 2629 2629 2629 2609 2609 2609 2609 2609 2609 2609 2609 2609 2609 2589 2589 2589 2589 2589 1750 1741 1741 1741 1741 1741 1732 1732 1732 1732 1732 1732 1732 1732 1723 1723 1723 1723 1723 1715 1715 1706 1706 1706 1698 1698 1698 1698 1698 1698 1698 1698 1698 1698 1698 1698 0 0 0 0 2426 2426 2443 2443 2460 2443 2443 2443 2443 2443 2426 2426 2426 2409 2409 2409 2409 2409 2409 2409 2409 2409 2409 2409 2409 2392 2392 2376 2343 2327 2297 2281 2281 2281 2297 2297 2297 2297 2297 2297 2297 2297 2297 2281 2281 2281 2281 2281 2281 2281 2281 2266 2266 2266 2266 2266 2266 2266 2266 2281 2281 2281 2281 2297 2297 2297 2281 2281 2281 2281 2281 2281 2281 2281 2281 2281 2281 2266 2266 2266 2266 2266 2252 2252 2266 2266 2266 2266 2266 2252 2252 2252 2237 2237 2223 2223 2223 2223 2223 2223 2223 2223 2223 2223 2223 2208 2208 2208 2208 2208 2208 2208 2208 2208 2208 2208 2208 2194 2194 2194 2194 2194 2194 2194 2181 2181 2181 2181 2181 2167 2167 2167 2167 2167 2167 2167 2167 2167 2153 2153 2153 2153 2153 2153 2153 2153 2153
0 0 0 0 0 0 0 0 0 0 0 0 0 2181 2181 2181 2181 2194 2194 2208 2208 2223 2223 2223 2223 2237 2237 2252 2252 2252 2252 2266 2266 2266 2266 2281 2281 2281 2281 2281 2281 2297 2297 2297 2312 2312 2312 2312 2327 2327 2327 2327 2327 2343 2343 2343 2343 2359 2376 2376 2376 2376 2376 2392 2409 2409 2409 2409 2409 2409 2409 2409 2409 2409 2409 2409 2426 2426 2443 2443 2443 2443 2460 2460 2460 2460 2460 2460 2478 2478 2478 2478 2478 2496 2496 2514 2514 2514 2532 2532 2532 2532 2532 2532 2532 2532 2532 2551 2551 2551 2551 2551 2551 2551 2551 2551 2570 2570 2589 2589 2589 2609 2609 2609 2609 2609 2629 2629 2629 2629 2629 2629 2629 2629 2649 2649 2649 2669 2669 2669 2690 2690 2690 2690 2690 2711 2711 2711 2711 2711 2711 2711 2711 2733 2733 2754 2754 2754 2754 2777 2777 2777 2777 2777 2777 2777 2799 2799 2799 2799 2799 2822 2822 2822 2845 2822 2822 2845 2869 2869 1980 1969 1969 1969 1969 1992 2003 2003 2003 2003 2015 2015 2015 2027 2027 2039 2039 2039 2039 2051 2051 2051 2051 2051 2063 2063 2063 2063 2063 2063 2076 2076 2076 2076 2088 2088 2088 2088 2088 2088 2088 2101 2101 2101 2101 2127 2127 2140 0 0 0 0 0 0 0 0 0 0 0 0 0 0 0 0 0 0 0 0 0 0 0 0 0 0 0 0 0 0 0 0 0 0 0 0 0 0 0 0 0 0 0 0 0 0 0 0 0 0 0 0 0 0 1980 1980 1980 1969 1969 1969 1969 0 0 0 0 0 0 0 0 0 0 0 0 0 0 0 0 0 0 0 0 0 0 0 0 0 0 2967 2967 2967 2967 2967 2967 2967 2967 2967 2967 2967 2967 2967 2967 2993 2993 2993 2777 2777 2777 2777 2777 2777 2777 2777 2777 2777 2777 2799 2799 2799 2799 2822 2845 2869 2869 2869 2869 2869 2869 2869 2869 2869 2869 2869 2869 2869 2869 2869 2845 2845 2845 2845 2845 2822 2822 2822 2822 2822 2799 2799 2799 2799 2799 2777 2777 2777 2777 2777 2777 2777 2777 2777 2777 2754 2754 2754 2754 2733 2733 2733 2733 2711 2711 2711 2711 2711 2711 2711 2711 2711 2711 2711 2711 2690 2690 2690 2690 2690 2690 2690 2690 2690 2690 2690 2669 2669 2669 2649 2649 2649 2629 2629 2629 2629 2629 2629 2629 2629 2629 2629 2629 2629 2609 2609 2609 2609 2609 2609 2609 2609 2609 2609 2589 2589 2589 2589 2589 2609 1741 1741 1741 1741 1732 1732 1732 1732 1732 1732 1732 1732 1732 1723 1723 1723 1723 1715 1715 1706 1706 1698 1698 1698 1698 1698 1698 1698 1698 1698 1690 1690 1690 1690 0 0 0 0 0 2426 2426 2443 2443 2460 2443 2443 2443 2443 2443 2426 2426 2426 2426 2426 2409 2409 2409 2409 2409 2409 2409 2409 2409 2392 2392 2392 2376 2343 2327 2312 2297 2297 2297 2297 2297 2297 2297 2297 2297 2297 2297 2297 2281 2281 2281 2281 2281 2281 2281 2281 2266 2266 2266 2266 2266 2266 2266 2266 2266 2281 2281 2281 2297 2297 2297 2281 2281 2281 2281 2281 2281 2281 2281 2281 2281 2281 2281 2281 2266 2266 2266 2266 2266 2266 2266 2266 2266 2252 2237 2237 2237 2237 2237 2223 2223 2223 2223 2223 2223 2223 2223 2223 2223 2208 2208 2208 2208 2208 2208 2208 2208 2208 2208 2194 2194 2194 2194 2194 2194 2194 2194 2194 2194 2181 2181 2181 2181 2181 2167 2167 2167 2167 2167 2167 2167 2167 2167 2153 2153 2153 2153 2153 2153 2153 2153 2153
0 0 0 0 0 0 0 0 0 2153 2153 2167 2167 2181 2181 2181 2181 2194 2194 2208 2208 2208 2223 2223 2223 2237 2237 2252 2252 2252 2252 2266 2266 2266 2266 2281 2281 2281 2281 2281 2281 2281 2297 2297 2312 2312 2312 2312 2327 2327 2327 2327 2327 2343 2343 2343 2343 2359 2376 2376 2392 2392 2392 2392 2409 2409 2426 2409 2409 2409 2409 2409 2409 2409 2409 2409 2426 2426 2443 2443 2443 2460 2460 2460 2460 2460 2460 2460 2478 2478 2478 2478 2496 2496 2514 2514 2514 2514 2532 2532 2532 2532 2532 2532 2532 2532 2532 2532 2532 2551 2551 2551 2551 2551 2551 2551 2570 2570 2589 2589 2589 2589 2609 2609 2609 2609 2629 2629 2629 2629 2629 2629 2629 2629 2649 2649 2649 2669 2669 2669 2690 2690 2690 2690 2690 2711 2711 2711 2711 2711 2711 2711 2711 2711 2733 2754 2754 2754 2754 2777 2777 2777 2777 2777 2777 2777 2777 2799 2799 2799 2799 2822 2822 2822 2845 2822 2822 2845 2845 2845 2869 2869 2869 1969 1969 1992 2003 2003 2003 2003 2015 2015 2027 2027 2039 2039 2039 2039 2039 2051 2051 2051 2051 2051 2063 2063 2063 2063 2063 2076 2076 2076 2088 2088 2088 2101 2101 2101 2101 2101 2101 2101 2101 2114 2114 2127 2127 2140 2153 0 0 0 0 0 0 0 0 0 0 0 0 0 0 0 0 0 0 0 0 0 0 0 0 0 0 0 0 0 0 0 0 0 0 0 0 0 0 0 0 0 0 0 0 0 0 0 0 0 0 0 0 0 0 0 0 0 1969 1969 0 0 0 0 0 0 0 0 0 0 0 0 0 0 0 0 0 0 0 0 0 0 0 0 0 0 2993 2967 2967 2967 2967 2967 2967 2967 2967 2967 2967 2967 2967 2967 2967 2993 2993 2993 2777 2777 2777 2777 2777 2777 2777 2777 2777 2777 2777 2777 2777 2799 2799 2822 2845 2869 2869 2869 2869 2869 2869 2869 2869 2869 2869 2869 2869 2869 2869 2869 2845 2845 2845 2845 2845 2822 2822 2822 2822 2822 2799 2799 2799 2799 2799 2777 2777 2777 2777 2777 2777 2777 2777 2777 2777 2754 2754 2754 2754 2754 2754 2733 2733 2733 2711 2711 2711 2711 2711 2711 2711 2711 2690 2690 2690 2690 2690 2690 2690 2690 2690 2690 2669 2669 2669 2669 2669 2669 2669 2649 2649 2649 2629 2629 2629 2629 2629 2629 2629 2629 2629 2629 2629 2629 2609 2609 2609 2609 2609 2609 2609 2589 2589 2589 2589 2589 2589 2589 2589 2609 2609 1741 1741 1741 1732 1732 1732 1732 1732 1732 1732 1732 1732 1723 1723 1723 1723 1715 1715 1706 1706 1698 1698 1698 1698 1698 1698 1698 1698 1698 1690 1690 1690 1690 0 0 0 0 0 2426 2426 2443 2443 2443 2443 2443 2443 2443 2443 2426 2426 2426 2426 2426 2409 2409 2409 2409 2409 2409 2409 2409 2409 2392 2392 2392 2376 2359 2327 2297 2297 2297 2297 2297 2297 2297 2297 2297 2297 2297 2281 2281 2281 2281 2281 2281 2281 2281 2281 2281 2266 2266 2266 2266 2266 2266 2266 2266 2266 2281 2281 2281 2297 2297 2297 2281 2281 2281 2281 2281 2281 2281 2281 2281 2281 2281 2281 2281 2266 2266 2266 2266 2266 2266 2266 2266 2266 2252 2237 2237 2237 2237 2237 2223 2223 2223 2223 2223 2223 2223 2223 2223 2223 2208 2208 2208 2208 2208 2208 2208 2208 2208 2194 2194 2194 2194 2194 2194 2194 2194 2194 2194 2194 2194 2194 2194 2181 2181 2167 2167 2167 2167 2167 2167 2167 2153 2153 2153 2153 2153 2153 2153 2153 2153 2153 2153
0 0 0 0 0 0 0 2153 2153 2153 2153 2167 2167 2181 2181 2181 2181 2194 2194 2208 2208 2208 2223 2223 2223 2237 2237 2252 2252 2252 2266 2266 2266 2266 2266 2281 2281 2281 2281 2281 2281 2281 2297 2297 2312 2312 2312 2312 2327 2327 2327 2327 2327 2327 2343 2343 2343 2359 2376 2376 2392 2392 2392 2392 2409 2409 2409 2409 2409 2409 2409 2409 2409 2409 2409 2426 2426 2426 2443 2443 2460 2460 2460 2460 2460 2460 2460 2460 2478 2478 2478 2478 2496 2496 2514 2514 2514 2514 2532 2532 2532 2532 2532 2532 2532 2532 2532 2532 2532 2551 2551 2551 2551 2551 2570 2570 2570 2570 2589 2589 2589 2589 2589 2609 2609 2609 2609 2609 2629 2629 2629 2629 2629 2649 2649 2649 2649 2669 2669 2669 2669 2690 2690 2690 2690 2690 2690 2711 2711 2711 2711 2711 2711 2711 2733 2754 2754 2754 2754 2754 2754 2777 2777 2777 2777 2777 2777 2799 2799 2799 2799 2822 2822 2822 2822 2822 2822 2845 2845 2845 2845 2845 2845 2869 2869 2893 2893 2917 2003 2003 2015 2015 2015 2027 2039 2039 2051 2051 2051 2051 2051 2051 2051 2063 2063 2063 2063 2063 2063 2076 2076 2088 2088 2088 2088 2101 2101 2101 2101 2101 2101 2114 2114 2114 2127 2140 2140 2153 2153 2153 0 0 0 0 0 0 0 0 0 0 0 0 0 0 0 0 0 0 0 0 0 0 0 0 0 0 0 0 0 0 0 0 0 0 0 0 0 0 0 0 0 0 0 0 0 0 0 0 0 0 0 0 0 0 0 0 0 0 0 0 0 0 0 0 0 0 0 0 3046 3046 3073 0 0 0 0 0 0 0 0 0 0 0 0 2993 2993 2967 2967 2967 2967 2967 2967 2967 2967 2967 2967 2967 2967 2967 2967 2967 2967 2822 2777 2777 2777 2777 2777 2777 2777 2777 2777 2777 2777 2777 2777 2799 2799 2822 2845 2869 2869 2869 2869 2869 2869 2869 2869 2869 2869 2869 2869 2869 2869 2869 2845 2845 2845 2845 2822 2822 2822 2822 2799 2799 2799 2799 2799 2799 2799 2777 2777 2777 2777 2777 2777 2777 2777 2777 2777 2777 2754 2754 2754 2754 2754 2733 2733 2733 2711 2711 2711 2711 2711 2711 2711 2711 2690 2690 2690 2690 2690 2690 2690 2690 2690 2690 2669 2669 2669 2669 2669 2669 2669 2649 2649 2649 2629 2629 2629 2629 2629 2629 2629 2629 2629 2629 2629 2629 2609 2609 2609 2609 2609 2609 2609 2589 2589 2589 2589 2589 2589 2589 2589 2609 1741 1741 1741 1741 1741 1732 1732 1732 1732 1732 1732 1732 1732 1723 1723 1723 1723 1715 1715 1706 1706 1698 1698 1698 1698 1698 1698 1698 1690 1690 1690 1690 1690 1690 0 0 0 0 0 2426 2426 2426 2443 2443 2443 2443 2443 2443 2443 2426 2426 2426 2409 2409 2409 2409 2409 2409 2409 2409 2409 2409 2409 2392 2392 2392 2376 2343 2327 2297 2297 2297 2297 2297 2297 2297 2297 2297 2297 2281 2281 2281 2281 2281 2281 2281 2281 2281 2281 2281 2266 2266 2266 2252 2252 2252 2252 2252 2266 2266 2281 2281 2281 2297 2297 2297 2297 2281 2281 2281 2281 2281 2281 2281 2281 2281 2281 2281 2266 2266 2266 2266 2266 2266 2266 2266 2266 2252 2237 2237 2237 2237 2237 2223 2223 2223 2223 2223 2223 2223 2223 2223 2208 2208 2208 2208 2208 2208 2208 2208 2208 2208 2194 2194 2194 2194 2194 2194 2194 2194 2194 2194 2194 2194 2194 2194 2181 2181 2167 2167 2167 2167 2167 2167 2167 2153 2153 2153 2153 2153 2153 2153 2153 2153 2153 2153
0 0 0 0 0 0 0 2153 2153 2153 2167 2181 2181 2181 2181 2181 2194 2194 2208 2208 2208 2208 2223 2223 2223 2237 2237 2252 2252 2252 2266 2266 2266 2266 2266 2281 2281 2281 2281 2281 2281 2281 2297 2297 2312 2312 2312 2312 2327 2327 2327 2327 2327 2327 2327 2343 2343 2343 2359 2376 2376 2376 2392 2392 2409 2409 2409 2409 2409 2409 2409 2409 2409 2409 2409 2409 2426 2426 2426 2443 2443 2460 2460 2460 2460 2460 2460 2460 2478 2478 2478 2478 2496 2496 2514 2514 2514 2514 2532 2532 2532 2532 2532 2532 2532 2532 2532 2532 2532 2551 2551 2551 2551 2551 2570 2570 2570 2570 2589 2570 2570 2589 2589 2609 2609 2609 2609 2609 2629 2629 2629 2629 2629 2649 2649 2649 2649 2649 2649 2669 2669 2669 2669 2690 2690 2690 2690 2690 2690 2711 2711 2711 2711 2733 2733 2733 2754 2754 2754 2754 2754 2777 2777 2777 2777 2777 2799 2799 2799 2799 2799 2799 2822 2822 2822 2822 2822 2845 2845 2845 2845 2845 2845 2869 2869 2893 2893 2917 2917 2917 2027 2015 2015 2039 2039 2051 2051 2051 2051 2051 2051 2051 2051 2051 2063 2063 2076 2076 2076 2076 2088 2088 2088 2088 2101 2101 2101 2101 2101 2101 2101 2114 2127 2127 2140 2140 2153 2153 2153 2153 0 0 0 0 0 0 0 0 0 0 0 0 0 0 0 0 0 0 0 0 0 0 0 0 0 0 0 0 0 0 0 0 0 0 0 0 0 0 0 0 0 0 0 0 0 0 0 0 0 0 0 0 0 0 0 0 0 0 0 0 0 0 0 3073 3073 3073 3073 3073 3046 3046 3073 3073 3046 3046 3046 0 0 0 2993 2993 3019 3019 3019 2993 2993 2993 2993 2993 2993 2967 2967 2967 2967 2967 2967 2967 2967 2967 2967 2967 2967 2822 2777 2777 2777 2777 2777 2777 2777 2777 2777 2777 2777 2777 2777 2799 2799 2822 2845 2869 2869 2893 2869 2869 2869 2869 2869 2869 2869 2869 2869 2869 2869 2869 2845 2845 2845 2845 2822 2822 2822 2822 2799 2799 2799 2799 2799 2799 2799 2777 2777 2777 2777 2777 2777 2777 2777 2777 2777 2777 2777 2777 2754 2754 2754 2733 2733 2733 2711 2711 2711 2711 2711 2711 2711 2711 2690 2690 2690 2690 2690 2690 2690 2690 2690 2690 2669 2669 2669 2669 2669 2669 2669 2669 2649 2649 2649 2649 2649 2629 2629 2629 2629 2629 2629 2629 2629 2629 2609 2609 2609 2609 2609 2609 2609 2609 2609 2609 2589 2589 2589 2589 2589 2609 1732 1732 1741 1741 1732 1732 1732 1732 1732 1732 1732 1732 1723 1723 1723 1723 1723 1715 1715 1715 1706 1698 1698 1698 1698 1698 1698 1690 1690 1690 1690 1690 1690 1690 0 0 0 0 0 2426 2426 2426 2443 2443 2443 2443 2443 2443 2443 2426 2426 2426 2409 2409 2409 2409 2409 2409 2409 2409 2409 2409 2392 2392 2392 2392 2359 2343 2327 2312 2297 2297 2297 2297 2297 2297 2281 2281 2281 2281 2281 2281 2281 2281 2281 2281 2281 2281 2281 2281 2266 2266 2266 2252 2252 2252 2252 2252 2266 2266 2281 2281 2281 2297 2297 2297 2297 2297 2297 2281 2281 2297 2297 2297 2281 2281 2281 2281 2266 2266 2266 2266 2266 2266 2266 2266 2266 2252 2237 2237 2237 2237 2223 2223 2223 2223 2223 2223 2223 2223 2223 2223 2208 2208 2208 2208 2208 2208 2208 2208 2208 2208 2194 2194 2194 2194 2194 2194 2194 2194 2194 2194 2194 2181 2181 2181 2181 2181 2167 2167 2167 2167 2167 2167 2167 2153 2153 2153 2153 2153 2153 2153 2153 2153 2153 2153
0 0 0 0 0 0 0 2153 2153 2167 2167 2181 2181 2181 2181 2181 2194 2194 2208 2208 2208 2223 2223 2223 2223 2237 2237 2252 2252 2252 2266 2266 2266 2266 2266 2266 2281 2281 2281 2281 2281 2297 2297 2297 2312 2312 2312 2327 2327 2327 2327 2327 2327 2327 2327 2343 2343 2343 2359 2376 2376 2376 2392 2392 2392 2409 2409 2409 2409 2409 2409 2409 2409 2409 2409 2409 2426 2426 2426 2443 2443 2460 2460 2460 2460 2460 2460 2460 2478 2478 2478 2478 2478 2496 2514 2514 2514 2514 2514 2532 2532 2532 2532 2532 2532 2532 2532 2532 2532 2551 2551 2551 2551 2551 2570 2570 2570 2570 2570 2570 2570 2589 2589 2589 2609 2609 2609 2609 2629 2629 2629 2629 2629 2649 2649 2649 2649 2649 2649 2669 2669 2669 2669 2690 2690 2690 2690 2690 2690 2711 2711 2711 2711 2733 2733 2733 2754 2754 2754 2777 2777 2777 2777 2777 2777 2799 2799 2799 2799 2799 2799 2799 2822 2822 2822 2822 2822 2845 2845 2845 2845 2845 2869 2869 2869 2893 2893 2893 2893 2893 2893 2039 2039 2039 2039 2051 2051 2051 2051 2051 2051 2051 2051 2051 2063 2063 2076 2076 2076 2076 2088 2088 2088 2088 2101 2101 2101 2101 2101 2101 2114 2114 2127 2140 2140 2153 2153 2153 2153 2153 0 0 0 0 0 0 0 0 2167 2167 0 0 0 0 0 0 0 0 0 0 0 0 0 0 0 0 0 0 0 0 0 0 0 0 0 0 0 0 0 0 0 0 0 0 0 0 0 0 0 0 0 0 0 0 0 0 0 0 3101 3101 3101 3101 3101 3073 3073 3073 3073 3073 3073 3073 3073 3073 3046 3046 3019 3019 3019 3019 2993 2993 3019 3019 3019 2993 2993 2993 2993 2993 2993 2967 2967 2967 2967 2967 2967 2967 2967 2967 2967 2967 2967 2967 2777 2777 2777 2777 2777 2777 2777 2777 2777 2777 2777 2777 2777 2799 2799 2845 2845 2869 2869 2893 2869 2869 2869 2869 2869 2869 2869 2869 2869 2869 2869 2869 2845 2845 2845 2822 2822 2822 2822 2822 2799 2799 2799 2799 2799 2799 2777 2777 2777 2777 2777 2777 2777 2777 2777 2777 2777 2777 2777 2777 2777 2754 2754 2754 2733 2733 2733 2711 2711 2711 2711 2711 2711 2711 2711 2690 2690 2690 2690 2690 2690 2690 2690 2669 2669 2690 2669 2669 2669 2669 2669 2669 2649 2649 2649 2649 2649 2629 2629 2629 2629 2629 2629 2629 2629 2629 2609 2609 2609 2609 2609 2609 2609 2609 2609 2609 2589 2589 2589 2589 2589 2609 1732 1732 1732 1732 1732 1732 1732 1732 1732 1732 1732 1723 1723 1723 1723 1715 1715 1715 1715 1715 1706 1706 1706 1698 1698 1698 1698 1690 1690 1690 1690 1690 1690 1690 0 0 0 0 0 2443 2443 2443 2443 2443 2443 2443 2443 2443 2443 2426 2426 2426 2409 2409 2409 2409 2409 2409 2409 2409 2409 2392 2392 2392 2392 2392 2359 2343 2327 2312 2297 2297 2297 2297 2297 2297 2281 2281 2281 2281 2281 2281 2281 2281 2281 2281 2281 2281 2266 2266 2266 2266 2266 2266 2252 2252 2252 2252 2266 2266 2281 2281 2281 2281 2281 2297 2297 2297 2297 2297 2297 2297 2297 2297 2281 2281 2281 2281 2266 2266 2266 2266 2266 2266 2266 2266 2266 2252 2237 2237 2237 2223 2223 2223 2223 2223 2223 2223 2223 2223 2223 2208 2208 2208 2208 2208 2208 2208 2208 2208 2208 2208 2208 2208 2194 2194 2194 2194 2194 2194 2194 2194 2194 2181 2181 2181 2181 2181 2167 2167 2167 2167 2167 2167 2167 2153 2153 2153 2153 2153 2153 2153 2153 2153 2153 2153
0 0 0 0 0 0 0 2167 2167 2167 2167 2167 2181 2181 2181 2181 2194 2194 2208 2208 2208 2223 2223 2223 2223 2237 2237 2252 2252 2252 2266 2266 2266 2266 2266 2266 2281 2281 2281 2281 2281 2297 2297 2312 2312 2327 2327 2327 2327 2327 2327 2327 2327 2327 2327 2343 2343 2343 2359 2376 2376 2376 2376 2392 2392 2392 2409 2409 2409 2409 2409 2409 2409 2409 2409 2409 2409 2409 2426 2443 2443 2460 2460 2460 2460 2460 2460 2460 2478 2478 2478 2478 2478 2496 2514 2514 2514 2514 2514 2532 2532 2532 2532 2532 2532 2532 2532 2532 2532 2551 2551 2551 2551 2551 2551 2551 2570 2570 2570 2570 2570 2570 2589 2589 2609 2609 2609 2609 2629 2629 2629 2629 2629 2629 2649 2649 2649 2649 2669 2669 2669 2669 2669 2669 2669 2690 2690 2690 2711 2711 2711 2711 2711 2733 2733 2733 2754 2754 2754 2777 2777 2777 2777 2777 2777 2777 2799 2799 2799 2799 2799 2799 2822 2822 2822 2822 2822 2845 2845 2845 2869 2869 2869 2869 2893 2893 2893 2893 2893 2893 2893 2893 2893 2893 2063 2063 2063 2063 2063 2051 2051 2051 2051 2063 2063 2076 2088 2088 2088 2088 2088 2101 2101 2101 2101 2101 2101 2101 2114 2114 2114 2127 2127 2140 2140 2153 2153 2153 2153 2167 2167 2153 2153 2167 2167 2167 2167 2167 2167 2167 2194 2194 2194 2194 2194 2208 0 0 0 0 0 0 0 0 0 0 0 0 0 0 0 0 0 0 0 0 0 0 0 0 0 0 0 0 0 0 0 0 0 0 0 0 0 0 0 0 3101 3101 3101 3101 3101 3101 3073 3073 3073 3073 3073 3073 3073 3073 3073 3073 3046 3046 3019 3019 3019 3019 2993 2993 3019 3019 3019 3019 3019 2993 2993 2993 2993 2993 2967 2967 2967 2967 2967 2967 2967 2967 2993 2993 2993 2967 2777 2777 2777 2777 2777 2777 2777 2777 2777 2777 2777 2777 2799 2799 2822 2845 2869 2869 2893 2893 2869 2869 2869 2869 2869 2869 2869 2869 2869 2869 2869 2845 2845 2845 2845 2822 2822 2822 2822 2822 2799 2799 2799 2799 2799 2799 2777 2777 2777 2777 2777 2777 2777 2777 2777 2777 2777 2777 2777 2777 2754 2754 2754 2754 2733 2733 2733 2733 2711 2711 2711 2711 2711 2690 2690 2690 2690 2690 2690 2690 2690 2690 2690 2669 2669 2690 2669 2669 2669 2669 2669 2669 2649 2649 2629 2629 2649 2629 2629 2629 2629 2629 2629 2629 2629 2629 2609 2609 2609 2609 2609 2609 2609 2609 2609 2609 2589 2589 2589 2589 2589 2609 1732 1732 1732 1732 1732 1732 1732 1732 1732 1732 1732 1723 1723 1723 1723 1715 1715 1706 1706 1706 1706 1706 1706 1698 1698 1698 1690 1690 1690 1690 1681 1681 1690 1690 0 0 0 0 0 2443 2443 2443 2443 2443 2443 2443 2443 2443 2443 2426 2426 2426 2409 2409 2409 2409 2409 2409 2409 2409 2409 2392 2392 2392 2376 2376 2359 2343 2327 2297 2297 2297 2297 2297 2297 2297 2297 2281 2281 2281 2281 2281 2281 2281 2281 2281 2281 2266 2266 2266 2266 2266 2266 2266 2252 2252 2252 2252 2266 2266 2281 2281 2281 2281 2281 2297 2297 2297 2297 2297 2297 2281 2281 2281 2281 2281 2281 2281 2266 2266 2266 2266 2266 2266 2266 2266 2266 2252 2237 2237 2237 2223 2223 2223 2223 2223 2223 2223 2223 2223 2223 2208 2208 2208 2208 2208 2208 2208 2208 2208 2208 2208 2194 2194 2194 2194 2194 2194 2194 2194 2194 2194 2194 2181 2181 2181 2181 2181 2167 2167 2167 2167 2167 2167 2167 2167 2167 2153 2153 2153 2153 2153 2153 2153 2153 2153
0 0 0 0 0 0 0 2167 2167 2167 2167 2167 2181 2181 2181 2181 2194 2194 2208 2208 2208 2223 2223 2223 2223 2237 2237 2252 2252 2252 2266 2266 2266 2266 2266 2281 2281 2281 2281 2281 2281 2297 2297 2312 2312 2327 2327 2327 2327 2327 2327 2327 2327 2327 2343 2343 2343 2359 2359 2376 2376 2376 2376 2392 2392 2392 2409 2409 2409 2409 2409 2409 2409 2409 2409 2409 2409 2409 2426 2443 2443 2460 2460 2460 2460 2460 2460 2460 2478 2478 2478 2478 2496 2496 2514 2514 2514 2514 2514 2532 2532 2514 2514 2532 2532 2532 2532 2532 2532 2532 2551 2551 2551 2551 2551 2551 2570 2570 2570 2570 2570 2570 2589 2589 2609 2609 2609 2629 2629 2629 2629 2629 2629 2629 2629 2649 2649 2649 2649 2669 2669 2669 2669 2669 2669 2690 2690 2690 2711 2711 2711 2711 2733 2733 2733 2733 2754 2754 2754 2754 2754 2777 2777 2777 2777 2777 2799 2799 2799 2799 2799 2799 2822 2822 2822 2822 2822 2845 2845 2845 2869 2869 2869 2893 2893 2893 2893 2893 2893 2893 2893 2893 2893 2893 2893 2893 2063 2063 2063 2063 2063 2063 2063 0 0 0 0 0 2088 2088 2101 2101 2101 2101 2101 2101 2101 2101 2114 2114 2114 2127 2140 2153 2153 2153 2153 2153 2167 2167 2167 2153 2153 2167 2167 2167 2167 2167 2167 2181 2194 2194 2194 2194 2194 2208 2208 2208 0 0 0 0 0 0 0 0 0 0 0 0 0 0 0 0 0 0 0 0 0 0 0 0 0 0 0 0 0 0 0 0 0 0 0 0 0 3129 3101 3101 3101 3101 3101 3101 3073 3073 3073 3073 3073 3073 3073 3073 3073 3073 3073 3073 3046 3046 3019 3019 3019 3019 3046 3019 3019 3019 3019 2993 2993 2993 2993 2993 2993 2993 2967 2967 2967 2967 2967 2967 2967 2967 2967 2967 2777 2777 2777 2777 2777 2777 2777 2777 2777 2777 2777 2777 2799 2799 2822 2845 2869 2869 2869 2869 2869 2869 2869 2869 2869 2869 2869 2869 2869 2869 2869 2845 2845 2845 2845 2822 2822 2822 2822 2822 2822 2822 2799 2799 2799 2799 2799 2799 2799 2777 2777 2777 2777 2777 2777 2777 2777 2777 2777 2777 2754 2754 2754 2754 2733 2733 2733 2733 2711 2711 2711 2711 2711 2690 2690 2690 2690 2690 2690 2690 2690 2690 2690 2690 2690 2690 2690 2690 2669 2669 2669 2669 2649 2649 2629 2629 2629 2629 2629 2629 2629 2629 2629 2629 2629 2629 2609 2609 2609 2609 2609 2609 2609 2609 2609 2589 2589 2589 2589 2589 2589 2589 1732 1732 1741 1741 1741 1732 1732 1732 1732 1732 1723 1723 1723 1723 1723 1715 1715 1706 1706 1706 1706 1706 1698 1698 1698 1690 1690 1690 1690 1690 1681 1681 1681 1681 0 0 0 0 0 2443 2443 2443 2443 2443 2460 2460 2443 2443 2443 2426 2426 2409 2409 2409 2409 2409 2409 2409 2409 2409 2409 2409 2392 2392 2376 2376 2376 2343 2312 2297 2281 2281 2281 2281 2281 2297 2297 2281 2281 2281 2281 2281 2281 2281 2281 2281 2266 2266 2266 2266 2266 2266 2252 2252 2266 2252 2252 2252 2266 2281 2281 2281 2281 2297 2297 2297 2297 2297 2297 2297 2297 2281 2281 2281 2281 2281 2281 2281 2281 2281 2281 2281 2266 2266 2266 2266 2252 2252 2237 2237 2237 2237 2237 2237 2237 2237 2223 2223 2223 2223 2223 2208 2208 2208 2208 2208 2208 2208 2208 2208 2208 2194 2194 2194 2181 2181 2181 2181 2181 2194 2194 2194 2194 2181 2181 2181 2181 2181 2167 2167 2167 2167 2167 2167 2167 2167 2167 2153 2153 2153 2153 2153 2153 2153 2153 2153
